  58.00  26.00     0.88283E-01
  58.00  27.00    -0.24762E-01
  58.00  28.00    -0.10762    
  58.00  29.00    -0.15126    
  58.00  30.00    -0.14998    
  58.00  31.00    -0.10216    
  58.00  32.00    -0.10470E-01
  58.00  33.00     0.11819    
  58.00  34.00     0.27330    
  58.00  35.00     0.44164    
  58.00  36.00     0.60851    
  58.00  37.00     0.75913    
  58.00  38.00     0.88004    
  58.00  39.00     0.96040    
  58.00  40.00     0.99301    
  58.00  41.00     0.97500    
  58.00  42.00     0.90805    
  58.00  43.00     0.79817    
  58.00  44.00     0.65502    
  58.00  45.00     0.49090    
  58.00  46.00     0.31946    
  58.00  47.00     0.15428    
  58.00  48.00     0.75263E-02
  58.00  49.00    -0.11132    
  58.00  50.00    -0.19628    
  58.00  51.00    -0.24545    
  58.00  52.00    -0.26103    
  58.00  53.00    -0.24891    
  58.00  54.00    -0.21802    
  58.00  55.00    -0.17878    
  58.00  56.00    -0.14252    
  58.00  57.00    -0.11958    
  58.00  58.00    -0.11846    
  58.00  59.00    -0.14420    
  58.00  60.00    -0.19889    
  58.00  61.00    -0.28016    
  58.00  62.00    -0.38249    
  58.00  63.00    -0.49677    
  58.00  64.00    -0.61255    
  58.00  65.00    -0.71801    
  58.00  66.00    -0.80224    
  58.00  67.00    -0.85602    
  58.00  68.00    -0.87282    
  58.00  69.00    -0.84973    
  58.00  70.00    -0.78771    
  58.00  71.00    -0.69178    
  58.00  72.00    -0.56999    
  58.00  73.00    -0.43337    
  58.00  74.00    -0.29444    
  58.00  75.00    -0.16536    
  58.00  76.00    -0.57519E-01
  58.00  77.00     0.20582E-01
  58.00  78.00     0.63192E-01
  58.00  79.00     0.67919E-01
  58.00  80.00     0.36407E-01
  58.00  81.00    -0.25607E-01
  58.00  82.00    -0.10954    
  58.00  83.00    -0.20553    
  58.00  84.00    -0.30181    
  58.00  85.00    -0.38664    
  58.00  86.00    -0.45152    
  58.00  87.00    -0.49006    
  58.00  88.00    -0.49670    
  58.00  89.00    -0.47003    
  59.00 -89.00    -0.21895E-03
  59.00 -88.00     0.29206E-01
  59.00 -87.00     0.58975E-01
  59.00 -86.00     0.88804E-01
  59.00 -85.00     0.11714    
  59.00 -84.00     0.14396    
  59.00 -83.00     0.16517    
  59.00 -82.00     0.18517    
  59.00 -81.00     0.19681    
  59.00 -80.00     0.20073    
  59.00 -79.00     0.19526    
  59.00 -78.00     0.18014    
  59.00 -77.00     0.15456    
  59.00 -76.00     0.11889    
  59.00 -75.00     0.73060E-01
  59.00 -74.00     0.19640E-01
  59.00 -73.00    -0.39931E-01
  59.00 -72.00    -0.10354    
  59.00 -71.00    -0.16921    
  59.00 -70.00    -0.23285    
  59.00 -69.00    -0.29247    
  59.00 -68.00    -0.34472    
  59.00 -67.00    -0.38730    
  59.00 -66.00    -0.41784    
  59.00 -65.00    -0.43516    
  59.00 -64.00    -0.43810    
  59.00 -63.00    -0.42725    
  59.00 -62.00    -0.40318    
  59.00 -61.00    -0.36814    
  59.00 -60.00    -0.32438    
  59.00 -59.00    -0.27512    
  59.00 -58.00    -0.22389    
  59.00 -57.00    -0.17429    
  59.00 -56.00    -0.12955    
  59.00 -55.00    -0.92555E-01
  59.00 -54.00    -0.65310E-01
  59.00 -53.00    -0.49130E-01
  59.00 -52.00    -0.43898E-01
  59.00 -51.00    -0.48749E-01
  59.00 -50.00    -0.61823E-01
  59.00 -49.00    -0.80545E-01
  59.00 -48.00    -0.10190    
  59.00 -47.00    -0.12277    
  59.00 -46.00    -0.14031    
  59.00 -45.00    -0.15225    
  59.00 -44.00    -0.15718    
  59.00 -43.00    -0.15476    
  59.00 -42.00    -0.14578    
  59.00 -41.00    -0.13206    
  59.00 -40.00    -0.11634    
  59.00 -39.00    -0.10191    
  59.00 -38.00    -0.92271E-01
  59.00 -37.00    -0.90690E-01
  59.00 -36.00    -0.99798E-01
  59.00 -35.00    -0.12121    
  59.00 -34.00    -0.15527    
  59.00 -33.00    -0.20091    
  59.00 -32.00    -0.25565    
  59.00 -31.00    -0.31583    
  59.00 -30.00    -0.37686    
  59.00 -29.00    -0.43375    
  59.00 -28.00    -0.48156    
  59.00 -27.00    -0.51594    
  59.00 -26.00    -0.53367    
  59.00 -25.00    -0.53299    
  59.00 -24.00    -0.51389    
  59.00 -23.00    -0.47818    
  59.00 -22.00    -0.42936    
  59.00 -21.00    -0.37230    
  59.00 -20.00    -0.31281    
  59.00 -19.00    -0.25707    
  59.00 -18.00    -0.21100    
  59.00 -17.00    -0.17962    
  59.00 -16.00    -0.16661    
  59.00 -15.00    -0.17385    
  59.00 -14.00    -0.20124    
  59.00 -13.00    -0.24674    
  59.00 -12.00    -0.30655    
  59.00 -11.00    -0.37550    
  59.00 -10.00    -0.44763    
  59.00  -9.00    -0.51676    
  59.00  -8.00    -0.57715    
  59.00  -7.00    -0.62410    
  59.00  -6.00    -0.65430    
  59.00  -5.00    -0.66621    
  59.00  -4.00    -0.66005    
  59.00  -3.00    -0.63769    
  59.00  -2.00    -0.60230    
  59.00  -1.00    -0.55787    
  59.00   0.00    -0.50863    
  59.00   1.00    -0.45850    
  59.00   2.00    -0.41052    
  59.00   3.00    -0.36647    
  59.00   4.00    -0.32667    
  59.00   5.00    -0.28997    
  59.00   6.00    -0.25393    
  59.00   7.00    -0.21530    
  59.00   8.00    -0.17049    
  59.00   9.00    -0.11628    
  59.00  10.00    -0.50391E-01
  59.00  11.00     0.27949E-01
  59.00  12.00     0.11763    
  59.00  13.00     0.21550    
  59.00  14.00     0.31652    
  59.00  15.00     0.41408    
  59.00  16.00     0.50063    
  59.00  17.00     0.56847    
  59.00  18.00     0.61064    
  59.00  19.00     0.62178    
  59.00  20.00     0.59890    
  59.00  21.00     0.54199    
  59.00  22.00     0.45423    
  59.00  23.00     0.34202    
  59.00  24.00     0.21453    
  59.00  25.00     0.83008E-01
  59.00  26.00    -0.40218E-01
  59.00  27.00    -0.14288    
  59.00  28.00    -0.21400    
  59.00  29.00    -0.24501    
  59.00  30.00    -0.23071    
  59.00  31.00    -0.16991    
  59.00  32.00    -0.65709E-01
  59.00  33.00     0.74682E-01
  59.00  34.00     0.24047    
  59.00  35.00     0.41826    
  59.00  36.00     0.59321    
  59.00  37.00     0.75046    
  59.00  38.00     0.87652    
  59.00  39.00     0.96052    
  59.00  40.00     0.99527    
  59.00  41.00     0.97793    
  59.00  42.00     0.91021    
  59.00  43.00     0.79819    
  59.00  44.00     0.65166    
  59.00  45.00     0.48307    
  59.00  46.00     0.30630    
  59.00  47.00     0.13521    
  59.00  48.00    -0.17734E-01
  59.00  49.00    -0.14265    
  59.00  50.00    -0.23317    
  59.00  51.00    -0.28701    
  59.00  52.00    -0.30599    
  59.00  53.00    -0.29571    
  59.00  54.00    -0.26487    
  59.00  55.00    -0.22385    
  59.00  56.00    -0.18396    
  59.00  57.00    -0.15572    
  59.00  58.00    -0.14784    
  59.00  59.00    -0.16585    
  59.00  60.00    -0.21222    
  59.00  61.00    -0.28505    
  59.00  62.00    -0.37929    
  59.00  63.00    -0.48635    
  59.00  64.00    -0.59613    
  59.00  65.00    -0.69699    
  59.00  66.00    -0.77819    
  59.00  67.00    -0.83051    
  59.00  68.00    -0.84728    
  59.00  69.00    -0.82536    
  59.00  70.00    -0.76539    
  59.00  71.00    -0.67207    
  59.00  72.00    -0.55312    
  59.00  73.00    -0.41917    
  59.00  74.00    -0.28250    
  59.00  75.00    -0.15514    
  59.00  76.00    -0.48265E-01
  59.00  77.00     0.29587E-01
  59.00  78.00     0.72498E-01
  59.00  79.00     0.77919E-01
  59.00  80.00     0.47366E-01
  59.00  81.00    -0.13687E-01
  59.00  82.00    -0.96928E-01
  59.00  83.00    -0.19257    
  59.00  84.00    -0.28910    
  59.00  85.00    -0.37491    
  59.00  86.00    -0.44140    
  59.00  87.00    -0.48207    
  59.00  88.00    -0.49112    
  59.00  89.00    -0.46719    
  60.00 -89.00    -0.84636E-03
  60.00 -88.00     0.28135E-01
  60.00 -87.00     0.57628E-01
  60.00 -86.00     0.87338E-01
  60.00 -85.00     0.11550    
  60.00 -84.00     0.14238    
  60.00 -83.00     0.16343    
  60.00 -82.00     0.18393    
  60.00 -81.00     0.19610    
  60.00 -80.00     0.20068    
  60.00 -79.00     0.19616    
  60.00 -78.00     0.18235    
  60.00 -77.00     0.15840    
  60.00 -76.00     0.12457    
  60.00 -75.00     0.80980E-01
  60.00 -74.00     0.30002E-01
  60.00 -73.00    -0.27190E-01
  60.00 -72.00    -0.88574E-01
  60.00 -71.00    -0.15231    
  60.00 -70.00    -0.21453    
  60.00 -69.00    -0.27342    
  60.00 -68.00    -0.32574    
  60.00 -67.00    -0.36921    
  60.00 -66.00    -0.40146    
  60.00 -65.00    -0.42118    
  60.00 -64.00    -0.42706    
  60.00 -63.00    -0.41936    
  60.00 -62.00    -0.39835    
  60.00 -61.00    -0.36588    
  60.00 -60.00    -0.32399    
  60.00 -59.00    -0.27551    
  60.00 -58.00    -0.22387    
  60.00 -57.00    -0.17256    
  60.00 -56.00    -0.12490    
  60.00 -55.00    -0.84017E-01
  60.00 -54.00    -0.52331E-01
  60.00 -53.00    -0.31566E-01
  60.00 -52.00    -0.22275E-01
  60.00 -51.00    -0.24186E-01
  60.00 -50.00    -0.36036E-01
  60.00 -49.00    -0.55760E-01
  60.00 -48.00    -0.80718E-01
  60.00 -47.00    -0.10798    
  60.00 -46.00    -0.13465    
  60.00 -45.00    -0.15818    
  60.00 -44.00    -0.17668    
  60.00 -43.00    -0.18908    
  60.00 -42.00    -0.19530    
  60.00 -41.00    -0.19624    
  60.00 -40.00    -0.19363    
  60.00 -39.00    -0.18987    
  60.00 -38.00    -0.18766    
  60.00 -37.00    -0.18972    
  60.00 -36.00    -0.19832    
  60.00 -35.00    -0.21502    
  60.00 -34.00    -0.24039    
  60.00 -33.00    -0.27381    
  60.00 -32.00    -0.31348    
  60.00 -31.00    -0.35656    
  60.00 -30.00    -0.39938    
  60.00 -29.00    -0.43784    
  60.00 -28.00    -0.46781    
  60.00 -27.00    -0.48567    
  60.00 -26.00    -0.48869    
  60.00 -25.00    -0.47545    
  60.00 -24.00    -0.44605    
  60.00 -23.00    -0.40222    
  60.00 -22.00    -0.34723    
  60.00 -21.00    -0.28567    
  60.00 -20.00    -0.22300    
  60.00 -19.00    -0.16509    
  60.00 -18.00    -0.11763    
  60.00 -17.00    -0.85564E-01
  60.00 -16.00    -0.72594E-01
  60.00 -15.00    -0.80801E-01
  60.00 -14.00    -0.11042    
  60.00 -13.00    -0.15980    
  60.00 -12.00    -0.22557    
  60.00 -11.00    -0.30298    
  60.00 -10.00    -0.38636    
  60.00  -9.00    -0.46970    
  60.00  -8.00    -0.54723    
  60.00  -7.00    -0.61394    
  60.00  -6.00    -0.66606    
  60.00  -5.00    -0.70133    
  60.00  -4.00    -0.71912    
  60.00  -3.00    -0.72033    
  60.00  -2.00    -0.70715    
  60.00  -1.00    -0.68265    
  60.00   0.00    -0.65027    
  60.00   1.00    -0.61335    
  60.00   2.00    -0.57459    
  60.00   3.00    -0.53574    
  60.00   4.00    -0.49735    
  60.00   5.00    -0.45876    
  60.00   6.00    -0.41826    
  60.00   7.00    -0.37343    
  60.00   8.00    -0.32163    
  60.00   9.00    -0.26054    
  60.00  10.00    -0.18868    
  60.00  11.00    -0.10595    
  60.00  12.00    -0.13871E-01
  60.00  13.00     0.84227E-01
  60.00  14.00     0.18336    
  60.00  15.00     0.27721    
  60.00  16.00     0.35875    
  60.00  17.00     0.42091    
  60.00  18.00     0.45742    
  60.00  19.00     0.46365    
  60.00  20.00     0.43726    
  60.00  21.00     0.37875    
  60.00  22.00     0.29168    
  60.00  23.00     0.18261    
  60.00  24.00     0.60703E-01
  60.00  25.00    -0.62985E-01
  60.00  26.00    -0.17647    
  60.00  27.00    -0.26793    
  60.00  28.00    -0.32689    
  60.00  29.00    -0.34532    
  60.00  30.00    -0.31852    
  60.00  31.00    -0.24571    
  60.00  32.00    -0.13035    
  60.00  33.00     0.20114E-01
  60.00  34.00     0.19475    
  60.00  35.00     0.38009    
  60.00  36.00     0.56133    
  60.00  37.00     0.72367    
  60.00  38.00     0.85368    
  60.00  39.00     0.94060    
  60.00  40.00     0.97730    
  60.00  41.00     0.96100    
  60.00  42.00     0.89345    
  60.00  43.00     0.78077    
  60.00  44.00     0.63277    
  60.00  45.00     0.46197    
  60.00  46.00     0.28235    
  60.00  47.00     0.10790    
  60.00  48.00    -0.48691E-01
  60.00  49.00    -0.17729    
  60.00  50.00    -0.27124    
  60.00  51.00    -0.32792    
  60.00  52.00    -0.34883    
  60.00  53.00    -0.33930    
  60.00  54.00    -0.30776    
  60.00  55.00    -0.26451    
  60.00  56.00    -0.22079    
  60.00  57.00    -0.18725    
  60.00  58.00    -0.17273    
  60.00  59.00    -0.18319    
  60.00  60.00    -0.22141    
  60.00  61.00    -0.28595    
  60.00  62.00    -0.37220    
  60.00  63.00    -0.47208    
  60.00  64.00    -0.57583    
  60.00  65.00    -0.67205    
  60.00  66.00    -0.75018    
  60.00  67.00    -0.80102    
  60.00  68.00    -0.81781    
  60.00  69.00    -0.79716    
  60.00  70.00    -0.73945    
  60.00  71.00    -0.64904    
  60.00  72.00    -0.53328    
  60.00  73.00    -0.40243    
  60.00  74.00    -0.26848    
  60.00  75.00    -0.14333    
  60.00  76.00    -0.37840E-01
  60.00  77.00     0.39369E-01
  60.00  78.00     0.82197E-01
  60.00  79.00     0.88065E-01
  60.00  80.00     0.58287E-01
  60.00  81.00    -0.19228E-02
  60.00  82.00    -0.84522E-01
  60.00  83.00    -0.17980    
  60.00  84.00    -0.27654    
  60.00  85.00    -0.36328    
  60.00  86.00    -0.43132    
  60.00  87.00    -0.47407    
  60.00  88.00    -0.48553    
  60.00  89.00    -0.46434    
  61.00 -89.00    -0.14844E-02
  61.00 -88.00     0.27037E-01
  61.00 -87.00     0.56222E-01
  61.00 -86.00     0.85783E-01
  61.00 -85.00     0.11374    
  61.00 -84.00     0.14066    
  61.00 -83.00     0.16168    
  61.00 -82.00     0.18250    
  61.00 -81.00     0.19519    
  61.00 -80.00     0.20041    
  61.00 -79.00     0.19689    
  61.00 -78.00     0.18444    
  61.00 -77.00     0.16221    
  61.00 -76.00     0.13037    
  61.00 -75.00     0.89238E-01
  61.00 -74.00     0.40949E-01
  61.00 -73.00    -0.13582E-01
  61.00 -72.00    -0.72421E-01
  61.00 -71.00    -0.13388    
  61.00 -70.00    -0.19433    
  61.00 -69.00    -0.25214    
  61.00 -68.00    -0.30419    
  61.00 -67.00    -0.34825    
  61.00 -66.00    -0.38197    
  61.00 -65.00    -0.40389    
  61.00 -64.00    -0.41256    
  61.00 -63.00    -0.40791    
  61.00 -62.00    -0.38993    
  61.00 -61.00    -0.36004    
  61.00 -60.00    -0.32004    
  61.00 -59.00    -0.27239    
  61.00 -58.00    -0.22038    
  61.00 -57.00    -0.16736    
  61.00 -56.00    -0.11676    
  61.00 -55.00    -0.71912E-01
  61.00 -54.00    -0.35654E-01
  61.00 -53.00    -0.10114E-01
  61.00 -52.00     0.34663E-02
  61.00 -51.00     0.47594E-02
  61.00 -50.00    -0.55852E-02
  61.00 -49.00    -0.26033E-01
  61.00 -48.00    -0.54332E-01
  61.00 -47.00    -0.87748E-01
  61.00 -46.00    -0.12336    
  61.00 -45.00    -0.15834    
  61.00 -44.00    -0.19029    
  61.00 -43.00    -0.21741    
  61.00 -42.00    -0.23875    
  61.00 -41.00    -0.25422    
  61.00 -40.00    -0.26455    
  61.00 -39.00    -0.27122    
  61.00 -38.00    -0.27613    
  61.00 -37.00    -0.28141    
  61.00 -36.00    -0.28902    
  61.00 -35.00    -0.30048    
  61.00 -34.00    -0.31661    
  61.00 -33.00    -0.33731    
  61.00 -32.00    -0.36154    
  61.00 -31.00    -0.38734    
  61.00 -30.00    -0.41202    
  61.00 -29.00    -0.43244    
  61.00 -28.00    -0.44538    
  61.00 -27.00    -0.44793    
  61.00 -26.00    -0.43791    
  61.00 -25.00    -0.41418    
  61.00 -24.00    -0.37690    
  61.00 -23.00    -0.32764    
  61.00 -22.00    -0.26937    
  61.00 -21.00    -0.20621    
  61.00 -20.00    -0.14316    
  61.00 -19.00    -0.85623E-01
  61.00 -18.00    -0.38916E-01
  61.00 -17.00    -0.77594E-02
  61.00 -16.00     0.42042E-02
  61.00 -15.00    -0.52235E-02
  61.00 -14.00    -0.36557E-01
  61.00 -13.00    -0.88557E-01
  61.00 -12.00    -0.15834    
  61.00 -11.00    -0.24162    
  61.00 -10.00    -0.33317    
  61.00  -9.00    -0.42726    
  61.00  -8.00    -0.51823    
  61.00  -7.00    -0.60096    
  61.00  -6.00    -0.67136    
  61.00  -5.00    -0.72660    
  61.00  -4.00    -0.76532    
  61.00  -3.00    -0.78758    
  61.00  -2.00    -0.79466    
  61.00  -1.00    -0.78874    
  61.00   0.00    -0.77252    
  61.00   1.00    -0.74872    
  61.00   2.00    -0.71970    
  61.00   3.00    -0.68710    
  61.00   4.00    -0.65164    
  61.00   5.00    -0.61308    
  61.00   6.00    -0.57033    
  61.00   7.00    -0.52174    
  61.00   8.00    -0.46549    
  61.00   9.00    -0.40007    
  61.00  10.00    -0.32473    
  61.00  11.00    -0.23993    
  61.00  12.00    -0.14755    
  61.00  13.00    -0.51026E-01
  61.00  14.00     0.44773E-01
  61.00  15.00     0.13389    
  61.00  16.00     0.20979    
  61.00  17.00     0.26605    
  61.00  18.00     0.29712    
  61.00  19.00     0.29900    
  61.00  20.00     0.26995    
  61.00  21.00     0.21090    
  61.00  22.00     0.12569    
  61.00  23.00     0.20935E-01
  61.00  24.00    -0.94328E-01
  61.00  25.00    -0.20936    
  61.00  26.00    -0.31260    
  61.00  27.00    -0.39279    
  61.00  28.00    -0.44000    
  61.00  29.00    -0.44677    
  61.00  30.00    -0.40885    
  61.00  31.00    -0.32589    
  61.00  32.00    -0.20158    
  61.00  33.00    -0.43508E-01
  61.00  34.00     0.13740    
  61.00  35.00     0.32776    
  61.00  36.00     0.51294    
  61.00  37.00     0.67834    
  61.00  38.00     0.81077    
  61.00  39.00     0.89962    
  61.00  40.00     0.93793    
  61.00  41.00     0.92298    
  61.00  42.00     0.85655    
  61.00  43.00     0.74473    
  61.00  44.00     0.59729    
  61.00  45.00     0.42669    
  61.00  46.00     0.24686    
  61.00  47.00     0.71807E-01
  61.00  48.00    -0.85715E-01
  61.00  49.00    -0.21544    
  61.00  50.00    -0.31053    
  61.00  51.00    -0.36809    
  61.00  52.00    -0.38936    
  61.00  53.00    -0.37938    
  61.00  54.00    -0.34632    
  61.00  55.00    -0.30038    
  61.00  56.00    -0.25265    
  61.00  57.00    -0.21382    
  61.00  58.00    -0.19282    
  61.00  59.00    -0.19596    
  61.00  60.00    -0.22628    
  61.00  61.00    -0.28274    
  61.00  62.00    -0.36117    
  61.00  63.00    -0.45398    
  61.00  64.00    -0.55174    
  61.00  65.00    -0.64334    
  61.00  66.00    -0.71839    
  61.00  67.00    -0.76776    
  61.00  68.00    -0.78462    
  61.00  69.00    -0.76536    
  61.00  70.00    -0.71010    
  61.00  71.00    -0.62286    
  61.00  72.00    -0.51066    
  61.00  73.00    -0.38331    
  61.00  74.00    -0.25252    
  61.00  75.00    -0.13000    
  61.00  76.00    -0.26317E-01
  61.00  77.00     0.49872E-01
  61.00  78.00     0.92257E-01
  61.00  79.00     0.98337E-01
  61.00  80.00     0.69157E-01
  61.00  81.00     0.96784E-02
  61.00  82.00    -0.72328E-01
  61.00  83.00    -0.16723    
  61.00  84.00    -0.26414    
  61.00  85.00    -0.35176    
  61.00  86.00    -0.42131    
  61.00  87.00    -0.46606    
  61.00  88.00    -0.47993    
  61.00  89.00    -0.46148    
  62.00 -89.00    -0.21328E-02
  62.00 -88.00     0.25911E-01
  62.00 -87.00     0.54758E-01
  62.00 -86.00     0.84138E-01
  62.00 -85.00     0.11188    
  62.00 -84.00     0.13880    
  62.00 -83.00     0.15993    
  62.00 -82.00     0.18088    
  62.00 -81.00     0.19406    
  62.00 -80.00     0.19993    
  62.00 -79.00     0.19741    
  62.00 -78.00     0.18638    
  62.00 -77.00     0.16596    
  62.00 -76.00     0.13625    
  62.00 -75.00     0.97761E-01
  62.00 -74.00     0.52391E-01
  62.00 -73.00     0.78686E-03
  62.00 -72.00    -0.55207E-01
  62.00 -71.00    -0.11405    
  62.00 -70.00    -0.17240    
  62.00 -69.00    -0.22876    
  62.00 -68.00    -0.28022    
  62.00 -67.00    -0.32456    
  62.00 -66.00    -0.35948    
  62.00 -65.00    -0.38338    
  62.00 -64.00    -0.39470    
  62.00 -63.00    -0.39300    
  62.00 -62.00    -0.37802    
  62.00 -61.00    -0.35072    
  62.00 -60.00    -0.31267    
  62.00 -59.00    -0.26593    
  62.00 -58.00    -0.21362    
  62.00 -57.00    -0.15896    
  62.00 -56.00    -0.10545    
  62.00 -55.00    -0.56634E-01
  62.00 -54.00    -0.15729E-01
  62.00 -53.00     0.14733E-01
  62.00 -52.00     0.32821E-01
  62.00 -51.00     0.37602E-01
  62.00 -50.00     0.29106E-01
  62.00 -49.00     0.83234E-02
  62.00 -48.00    -0.22896E-01
  62.00 -47.00    -0.62032E-01
  62.00 -46.00    -0.10614    
  62.00 -45.00    -0.15214    
  62.00 -44.00    -0.19711    
  62.00 -43.00    -0.23855    
  62.00 -42.00    -0.27461    
  62.00 -41.00    -0.30420    
  62.00 -40.00    -0.32709    
  62.00 -39.00    -0.34379    
  62.00 -38.00    -0.35542    
  62.00 -37.00    -0.36353    
  62.00 -36.00    -0.36977    
  62.00 -35.00    -0.37567    
  62.00 -34.00    -0.38232    
  62.00 -33.00    -0.39021    
  62.00 -32.00    -0.39909    
  62.00 -31.00    -0.40795    
  62.00 -30.00    -0.41513    
  62.00 -29.00    -0.41853    
  62.00 -28.00    -0.41583    
  62.00 -27.00    -0.40489    
  62.00 -26.00    -0.38402    
  62.00 -25.00    -0.35238    
  62.00 -24.00    -0.31010    
  62.00 -23.00    -0.25854    
  62.00 -22.00    -0.20020    
  62.00 -21.00    -0.13866    
  62.00 -20.00    -0.78260E-01
  62.00 -19.00    -0.23816E-01
  62.00 -18.00     0.19872E-01
  62.00 -17.00     0.48448E-01
  62.00 -16.00     0.58437E-01
  62.00 -15.00     0.47599E-01
  62.00 -14.00     0.15185E-01
  62.00 -13.00    -0.37973E-01
  62.00 -12.00    -0.10950    
  62.00 -11.00    -0.19568    
  62.00 -10.00    -0.29180    
  62.00  -9.00    -0.39256    
  62.00  -8.00    -0.49257    
  62.00  -7.00    -0.58678    
  62.00  -6.00    -0.67092    
  62.00  -5.00    -0.74178    
  62.00  -4.00    -0.79741    
  62.00  -3.00    -0.83716    
  62.00  -2.00    -0.86149    
  62.00  -1.00    -0.87180    
  62.00   0.00    -0.87005    
  62.00   1.00    -0.85839    
  62.00   2.00    -0.83880    
  62.00   3.00    -0.81278    
  62.00   4.00    -0.78116    
  62.00   5.00    -0.74403    
  62.00   6.00    -0.70083    
  62.00   7.00    -0.65056    
  62.00   8.00    -0.59214    
  62.00   9.00    -0.52475    
  62.00  10.00    -0.44826    
  62.00  11.00    -0.36359    
  62.00  12.00    -0.27288    
  62.00  13.00    -0.17962    
  62.00  14.00    -0.88493E-01
  62.00  15.00    -0.50726E-02
  62.00  16.00     0.64646E-01
  62.00  17.00     0.11487    
  62.00  18.00     0.14069    
  62.00  19.00     0.13875    
  62.00  20.00     0.10778    
  62.00  21.00     0.49086E-01
  62.00  22.00    -0.33365E-01
  62.00  23.00    -0.13300    
  62.00  24.00    -0.24103    
  62.00  25.00    -0.34713    
  62.00  26.00    -0.44030    
  62.00  27.00    -0.50986    
  62.00  28.00    -0.54651    
  62.00  29.00    -0.54332    
  62.00  30.00    -0.49653    
  62.00  31.00    -0.40608    
  62.00  32.00    -0.27581    
  62.00  33.00    -0.11333    
  62.00  34.00     0.70588E-01
  62.00  35.00     0.26283    
  62.00  36.00     0.44908    
  62.00  37.00     0.61511    
  62.00  38.00     0.74805    
  62.00  39.00     0.83760    
  62.00  40.00     0.87698    
  62.00  41.00     0.86356    
  62.00  42.00     0.79914    
  62.00  43.00     0.68971    
  62.00  44.00     0.54489    
  62.00  45.00     0.37694    
  62.00  46.00     0.19962    
  62.00  47.00     0.26794E-01
  62.00  48.00    -0.12886    
  62.00  49.00    -0.25709    
  62.00  50.00    -0.35093    
  62.00  51.00    -0.40736    
  62.00  52.00    -0.42736    
  62.00  53.00    -0.41572    
  62.00  54.00    -0.38033    
  62.00  55.00    -0.33121    
  62.00  56.00    -0.27929    
  62.00  57.00    -0.23523    
  62.00  58.00    -0.20795    
  62.00  59.00    -0.20405    
  62.00  60.00    -0.22676    
  62.00  61.00    -0.27543    
  62.00  62.00    -0.34625    
  62.00  63.00    -0.43215    
  62.00  64.00    -0.52401    
  62.00  65.00    -0.61105    
  62.00  66.00    -0.68305    
  62.00  67.00    -0.73098    
  62.00  68.00    -0.74797    
  62.00  69.00    -0.73022    
  62.00  70.00    -0.67758    
  62.00  71.00    -0.59377    
  62.00  72.00    -0.48544    
  62.00  73.00    -0.36197    
  62.00  74.00    -0.23473    
  62.00  75.00    -0.11526    
  62.00  76.00    -0.13777E-01
  62.00  77.00     0.61032E-01
  62.00  78.00     0.10264    
  62.00  79.00     0.10871    
  62.00  80.00     0.79963E-01
  62.00  81.00     0.21107E-01
  62.00  82.00    -0.60351E-01
  62.00  83.00    -0.15486    
  62.00  84.00    -0.25190    
  62.00  85.00    -0.34035    
  62.00  86.00    -0.41135    
  62.00  87.00    -0.45806    
  62.00  88.00    -0.47432    
  62.00  89.00    -0.45861    
  63.00 -89.00    -0.27917E-02
  63.00 -88.00     0.24758E-01
  63.00 -87.00     0.53233E-01
  63.00 -86.00     0.82397E-01
  63.00 -85.00     0.10989    
  63.00 -84.00     0.13680    
  63.00 -83.00     0.15816    
  63.00 -82.00     0.17907    
  63.00 -81.00     0.19271    
  63.00 -80.00     0.19922    
  63.00 -79.00     0.19771    
  63.00 -78.00     0.18814    
  63.00 -77.00     0.16962    
  63.00 -76.00     0.14216    
  63.00 -75.00     0.10647    
  63.00 -74.00     0.64230E-01
  63.00 -73.00     0.15798E-01
  63.00 -72.00    -0.37067E-01
  63.00 -71.00    -0.92977E-01
  63.00 -70.00    -0.14889    
  63.00 -69.00    -0.20347    
  63.00 -68.00    -0.25400    
  63.00 -67.00    -0.29832    
  63.00 -66.00    -0.33417    
  63.00 -65.00    -0.35983    
  63.00 -64.00    -0.37363    
  63.00 -63.00    -0.37480    
  63.00 -62.00    -0.36279    
  63.00 -61.00    -0.33811    
  63.00 -60.00    -0.30208    
  63.00 -59.00    -0.25637    
  63.00 -58.00    -0.20391    
  63.00 -57.00    -0.14774    
  63.00 -56.00    -0.91430E-01
  63.00 -55.00    -0.38692E-01
  63.00 -54.00     0.68799E-02
  63.00 -53.00     0.42364E-01
  63.00 -52.00     0.65157E-01
  63.00 -51.00     0.73724E-01
  63.00 -50.00     0.67472E-01
  63.00 -49.00     0.46842E-01
  63.00 -48.00     0.13267E-01
  63.00 -47.00    -0.30959E-01
  63.00 -46.00    -0.82893E-01
  63.00 -45.00    -0.13921    
  63.00 -44.00    -0.19650    
  63.00 -43.00    -0.25156    
  63.00 -42.00    -0.30166    
  63.00 -41.00    -0.34476    
  63.00 -40.00    -0.37962    
  63.00 -39.00    -0.40583    
  63.00 -38.00    -0.42374    
  63.00 -37.00    -0.43433    
  63.00 -36.00    -0.43898    
  63.00 -35.00    -0.43922    
  63.00 -34.00    -0.43648    
  63.00 -33.00    -0.43184    
  63.00 -32.00    -0.42590    
  63.00 -31.00    -0.41864    
  63.00 -30.00    -0.40947    
  63.00 -29.00    -0.39733    
  63.00 -28.00    -0.38085    
  63.00 -27.00    -0.35863    
  63.00 -26.00    -0.32951    
  63.00 -25.00    -0.29283    
  63.00 -24.00    -0.24869    
  63.00 -23.00    -0.19811    
  63.00 -22.00    -0.14305    
  63.00 -21.00    -0.86375E-01
  63.00 -20.00    -0.31689E-01
  63.00 -19.00     0.16959E-01
  63.00 -18.00     0.55414E-01
  63.00 -17.00     0.79808E-01
  63.00 -16.00     0.86938E-01
  63.00 -15.00     0.74608E-01
  63.00 -14.00     0.41872E-01
  63.00 -13.00    -0.10822E-01
  63.00 -12.00    -0.81643E-01
  63.00 -11.00    -0.16750    
  63.00 -10.00    -0.26430    
  63.00  -9.00    -0.36731    
  63.00  -8.00    -0.47153    
  63.00  -7.00    -0.57216    
  63.00  -6.00    -0.66491    
  63.00  -5.00    -0.74638    
  63.00  -4.00    -0.81420    
  63.00  -3.00    -0.86710    
  63.00  -2.00    -0.90491    
  63.00  -1.00    -0.92828    
  63.00   0.00    -0.93854    
  63.00   1.00    -0.93727    
  63.00   2.00    -0.92609    
  63.00   3.00    -0.90632    
  63.00   4.00    -0.87885    
  63.00   5.00    -0.84402    
  63.00   6.00    -0.80171    
  63.00   7.00    -0.75147    
  63.00   8.00    -0.69281    
  63.00   9.00    -0.62551    
  63.00  10.00    -0.54995    
  63.00  11.00    -0.46738    
  63.00  12.00    -0.38013    
  63.00  13.00    -0.29163    
  63.00  14.00    -0.20634    
  63.00  15.00    -0.12942    
  63.00  16.00    -0.66304E-01
  63.00  17.00    -0.22178E-01
  63.00  18.00    -0.13372E-02
  63.00  19.00    -0.66038E-02
  63.00  20.00    -0.38807E-01
  63.00  21.00    -0.96428E-01
  63.00  22.00    -0.17545    
  63.00  23.00    -0.26948    
  63.00  24.00    -0.37010    
  63.00  25.00    -0.46752    
  63.00  26.00    -0.55133    
  63.00  27.00    -0.61154    
  63.00  28.00    -0.63948    
  63.00  29.00    -0.62876    
  63.00  30.00    -0.57602    
  63.00  31.00    -0.48143    
  63.00  32.00    -0.34889    
  63.00  33.00    -0.18582    
  63.00  34.00    -0.27133E-02
  63.00  35.00     0.18775    
  63.00  36.00     0.37177    
  63.00  37.00     0.53560    
  63.00  38.00     0.66685    
  63.00  39.00     0.75559    
  63.00  40.00     0.79530    
  63.00  41.00     0.78346    
  63.00  42.00     0.72181    
  63.00  43.00     0.61620    
  63.00  44.00     0.47598    
  63.00  45.00     0.31309    
  63.00  46.00     0.14097    
  63.00  47.00    -0.26823E-01
  63.00  48.00    -0.17784    
  63.00  49.00    -0.30194    
  63.00  50.00    -0.39220    
  63.00  51.00    -0.44549    
  63.00  52.00    -0.46262    
  63.00  53.00    -0.44813    
  63.00  54.00    -0.40959    
  63.00  55.00    -0.35686    
  63.00  56.00    -0.30061    
  63.00  57.00    -0.25140    
  63.00  58.00    -0.21807    
  63.00  59.00    -0.20747    
  63.00  60.00    -0.22290    
  63.00  61.00    -0.26411    
  63.00  62.00    -0.32761    
  63.00  63.00    -0.40678    
  63.00  64.00    -0.49288    
  63.00  65.00    -0.57543    
  63.00  66.00    -0.64443    
  63.00  67.00    -0.69097    
  63.00  68.00    -0.70814    
  63.00  69.00    -0.69201    
  63.00  70.00    -0.64216    
  63.00  71.00    -0.56200    
  63.00  72.00    -0.45783    
  63.00  73.00    -0.33857    
  63.00  74.00    -0.21527    
  63.00  75.00    -0.99226E-01
  63.00  76.00    -0.31331E-03
  63.00  77.00     0.72776E-01
  63.00  78.00     0.11332    
  63.00  79.00     0.11916    
  63.00  80.00     0.90690E-01
  63.00  81.00     0.32355E-01
  63.00  82.00    -0.48596E-01
  63.00  83.00    -0.14270    
  63.00  84.00    -0.23983    
  63.00  85.00    -0.32907    
  63.00  86.00    -0.40146    
  63.00  87.00    -0.45006    
  63.00  88.00    -0.46871    
  63.00  89.00    -0.45573    
  64.00 -89.00    -0.34608E-02
  64.00 -88.00     0.23578E-01
  64.00 -87.00     0.51648E-01
  64.00 -86.00     0.80559E-01
  64.00 -85.00     0.10779    
  64.00 -84.00     0.13465    
  64.00 -83.00     0.15635    
  64.00 -82.00     0.17706    
  64.00 -81.00     0.19111    
  64.00 -80.00     0.19827    
  64.00 -79.00     0.19777    
  64.00 -78.00     0.18970    
  64.00 -77.00     0.17313    
  64.00 -76.00     0.14804    
  64.00 -75.00     0.11529    
  64.00 -74.00     0.76359E-01
  64.00 -73.00     0.31323E-01
  64.00 -72.00    -0.18152E-01
  64.00 -71.00    -0.70826E-01
  64.00 -70.00    -0.12399    
  64.00 -69.00    -0.17646    
  64.00 -68.00    -0.22575    
  64.00 -67.00    -0.26973    
  64.00 -66.00    -0.30625    
  64.00 -65.00    -0.33346    
  64.00 -64.00    -0.34959    
  64.00 -63.00    -0.35352    
  64.00 -62.00    -0.34447    
  64.00 -61.00    -0.32247    
  64.00 -60.00    -0.28856    
  64.00 -59.00    -0.24406    
  64.00 -58.00    -0.19163    
  64.00 -57.00    -0.13415    
  64.00 -56.00    -0.75216E-01
  64.00 -55.00    -0.18686E-01
  64.00 -54.00     0.31508E-01
  64.00 -53.00     0.72063E-01
  64.00 -52.00     0.99729E-01
  64.00 -51.00     0.11238    
  64.00 -50.00     0.10881    
  64.00 -49.00     0.88902E-01
  64.00 -48.00     0.53662E-01
  64.00 -47.00     0.51410E-02
  64.00 -46.00    -0.53744E-01
  64.00 -45.00    -0.11945    
  64.00 -44.00    -0.18810    
  64.00 -43.00    -0.25584    
  64.00 -42.00    -0.31909    
  64.00 -41.00    -0.37487    
  64.00 -40.00    -0.42097    
  64.00 -39.00    -0.45609    
  64.00 -38.00    -0.47983    
  64.00 -37.00    -0.49264    
  64.00 -36.00    -0.49562    
  64.00 -35.00    -0.49034    
  64.00 -34.00    -0.47859    
  64.00 -33.00    -0.46207    
  64.00 -32.00    -0.44223    
  64.00 -31.00    -0.42008    
  64.00 -30.00    -0.39609    
  64.00 -29.00    -0.37027    
  64.00 -28.00    -0.34219    
  64.00 -27.00    -0.31116    
  64.00 -26.00    -0.27652    
  64.00 -25.00    -0.23778    
  64.00 -24.00    -0.19491    
  64.00 -23.00    -0.14853    
  64.00 -22.00    -0.99945E-01
  64.00 -21.00    -0.51226E-01
  64.00 -20.00    -0.50888E-02
  64.00 -19.00     0.35288E-01
  64.00 -18.00     0.66519E-01
  64.00 -17.00     0.85333E-01
  64.00 -16.00     0.88898E-01
  64.00 -15.00     0.75131E-01
  64.00 -14.00     0.42946E-01
  64.00 -13.00    -0.75900E-02
  64.00 -12.00    -0.75198E-01
  64.00 -11.00    -0.15746    
  64.00 -10.00    -0.25099    
  64.00  -9.00    -0.35172    
  64.00  -8.00    -0.45521    
  64.00  -7.00    -0.55702    
  64.00  -6.00    -0.65304    
  64.00  -5.00    -0.73981    
  64.00  -4.00    -0.81470    
  64.00  -3.00    -0.87603    
  64.00  -2.00    -0.92304    
  64.00  -1.00    -0.95580    
  64.00   0.00    -0.97505    
  64.00   1.00    -0.98187    
  64.00   2.00    -0.97752    
  64.00   3.00    -0.96313    
  64.00   4.00    -0.93960    
  64.00   5.00    -0.90747    
  64.00   6.00    -0.86693    
  64.00   7.00    -0.81800    
  64.00   8.00    -0.76067    
  64.00   9.00    -0.69518    
  64.00  10.00    -0.62229    
  64.00  11.00    -0.54351    
  64.00  12.00    -0.46121    
  64.00  13.00    -0.37873    
  64.00  14.00    -0.30022    
  64.00  15.00    -0.23038    
  64.00  16.00    -0.17411    
  64.00  17.00    -0.13600    
  64.00  18.00    -0.11979    
  64.00  19.00    -0.12783    
  64.00  20.00    -0.16062    
  64.00  21.00    -0.21654    
  64.00  22.00    -0.29164    
  64.00  23.00    -0.37984    
  64.00  24.00    -0.47319    
  64.00  25.00    -0.56253    
  64.00  26.00    -0.63816    
  64.00  27.00    -0.69078    
  64.00  28.00    -0.71238    
  64.00  29.00    -0.69708    
  64.00  30.00    -0.64186    
  64.00  31.00    -0.54702    
  64.00  32.00    -0.41635    
  64.00  33.00    -0.25699    
  64.00  34.00    -0.78943E-01
  64.00  35.00     0.10572    
  64.00  36.00     0.28384    
  64.00  37.00     0.44236    
  64.00  38.00     0.56946    
  64.00  39.00     0.65567    
  64.00  40.00     0.69476    
  64.00  41.00     0.68434    
  64.00  42.00     0.62608    
  64.00  43.00     0.52557    
  64.00  44.00     0.39178    
  64.00  45.00     0.23622    
  64.00  46.00     0.71841E-01
  64.00  47.00    -0.88245E-01
  64.00  48.00    -0.23197    
  64.00  49.00    -0.34945    
  64.00  50.00    -0.43389    
  64.00  51.00    -0.48213    
  64.00  52.00    -0.49488    
  64.00  53.00    -0.47642    
  64.00  54.00    -0.43401    
  64.00  55.00    -0.37730    
  64.00  56.00    -0.31662    
  64.00  57.00    -0.26238    
  64.00  58.00    -0.22330    
  64.00  59.00    -0.20635    
  64.00  60.00    -0.21489    
  64.00  61.00    -0.24900    
  64.00  62.00    -0.30546    
  64.00  63.00    -0.37815    
  64.00  64.00    -0.45863    
  64.00  65.00    -0.53679    
  64.00  66.00    -0.60286    
  64.00  67.00    -0.64804    
  64.00  68.00    -0.66545    
  64.00  69.00    -0.65102    
  64.00  70.00    -0.60410    
  64.00  71.00    -0.52781    
  64.00  72.00    -0.42806    
  64.00  73.00    -0.31332    
  64.00  74.00    -0.19429    
  64.00  75.00    -0.82022E-01
  64.00  76.00     0.13979E-01
  64.00  77.00     0.85028E-01
  64.00  78.00     0.12425    
  64.00  79.00     0.12966    
  64.00  80.00     0.10132    
  64.00  81.00     0.43413E-01
  64.00  82.00    -0.37065E-01
  64.00  83.00    -0.13075    
  64.00  84.00    -0.22795    
  64.00  85.00    -0.31791    
  64.00  86.00    -0.39162    
  64.00  87.00    -0.44206    
  64.00  88.00    -0.46309    
  64.00  89.00    -0.45284    
  65.00 -89.00    -0.41397E-02
  65.00 -88.00     0.22371E-01
  65.00 -87.00     0.50002E-01
  65.00 -86.00     0.78621E-01
  65.00 -85.00     0.10558    
  65.00 -84.00     0.13235    
  65.00 -83.00     0.15448    
  65.00 -82.00     0.17485    
  65.00 -81.00     0.18926    
  65.00 -80.00     0.19706    
  65.00 -79.00     0.19757    
  65.00 -78.00     0.19101    
  65.00 -77.00     0.17646    
  65.00 -76.00     0.15383    
  65.00 -75.00     0.12414    
  65.00 -74.00     0.88668E-01
  65.00 -73.00     0.47225E-01
  65.00 -72.00     0.13770E-02
  65.00 -71.00    -0.47787E-01
  65.00 -70.00    -0.97918E-01
  65.00 -69.00    -0.14796    
  65.00 -68.00    -0.19570    
  65.00 -67.00    -0.23906    
  65.00 -66.00    -0.27599    
  65.00 -65.00    -0.30453    
  65.00 -64.00    -0.32284    
  65.00 -63.00    -0.32947    
  65.00 -62.00    -0.32336    
  65.00 -61.00    -0.30413    
  65.00 -60.00    -0.27249    
  65.00 -59.00    -0.22941    
  65.00 -58.00    -0.17725    
  65.00 -57.00    -0.11873    
  65.00 -56.00    -0.57414E-01
  65.00 -55.00     0.27082E-02
  65.00 -54.00     0.57414E-01
  65.00 -53.00     0.10303    
  65.00 -52.00     0.13570    
  65.00 -51.00     0.15273    
  65.00 -50.00     0.15230    
  65.00 -49.00     0.13374    
  65.00 -48.00     0.97626E-01
  65.00 -47.00     0.45740E-01
  65.00 -46.00    -0.19052E-01
  65.00 -45.00    -0.93023E-01
  65.00 -44.00    -0.17189    
  65.00 -43.00    -0.25117    
  65.00 -42.00    -0.32648    
  65.00 -41.00    -0.39396    
  65.00 -40.00    -0.45048    
  65.00 -39.00    -0.49388    
  65.00 -38.00    -0.52303    
  65.00 -37.00    -0.53787    
  65.00 -36.00    -0.53927    
  65.00 -35.00    -0.52886    
  65.00 -34.00    -0.50877    
  65.00 -33.00    -0.48133    
  65.00 -32.00    -0.44885    
  65.00 -31.00    -0.41334    
  65.00 -30.00    -0.37636    
  65.00 -29.00    -0.33894    
  65.00 -28.00    -0.30157    
  65.00 -27.00    -0.26427    
  65.00 -26.00    -0.22681    
  65.00 -25.00    -0.18885    
  65.00 -24.00    -0.15016    
  65.00 -23.00    -0.11088    
  65.00 -22.00    -0.71603E-01
  65.00 -21.00    -0.33507E-01
  65.00 -20.00     0.16699E-02
  65.00 -19.00     0.31715E-01
  65.00 -18.00     0.54110E-01
  65.00 -17.00     0.66271E-01
  65.00 -16.00     0.65815E-01
  65.00 -15.00     0.50837E-01
  65.00 -14.00     0.20149E-01
  65.00 -13.00    -0.26534E-01
  65.00 -12.00    -0.88499E-01
  65.00 -11.00    -0.16403    
  65.00 -10.00    -0.25053    
  65.00  -9.00    -0.34466    
  65.00  -8.00    -0.44266    
  65.00  -7.00    -0.54059    
  65.00  -6.00    -0.63466    
  65.00  -5.00    -0.72150    
  65.00  -4.00    -0.79838    
  65.00  -3.00    -0.86331    
  65.00  -2.00    -0.91513    
  65.00  -1.00    -0.95340    
  65.00   0.00    -0.97836    
  65.00   1.00    -0.99065    
  65.00   2.00    -0.99120    
  65.00   3.00    -0.98094    
  65.00   4.00    -0.96075    
  65.00   5.00    -0.93129    
  65.00   6.00    -0.89301    
  65.00   7.00    -0.84628    
  65.00   8.00    -0.79145    
  65.00   9.00    -0.72912    
  65.00  10.00    -0.66030    
  65.00  11.00    -0.58663    
  65.00  12.00    -0.51047    
  65.00  13.00    -0.43495    
  65.00  14.00    -0.36385    
  65.00  15.00    -0.30143    
  65.00  16.00    -0.25202    
  65.00  17.00    -0.21965    
  65.00  18.00    -0.20756    
  65.00  19.00    -0.21772    
  65.00  20.00    -0.25042    
  65.00  21.00    -0.30402    
  65.00  22.00    -0.37478    
  65.00  23.00    -0.45705    
  65.00  24.00    -0.54348    
  65.00  25.00    -0.62559    
  65.00  26.00    -0.69448    
  65.00  27.00    -0.74158    
  65.00  28.00    -0.75953    
  65.00  29.00    -0.74292    
  65.00  30.00    -0.68900    
  65.00  31.00    -0.59810    
  65.00  32.00    -0.47376    
  65.00  33.00    -0.32266    
  65.00  34.00    -0.15416    
  65.00  35.00     0.20450E-01
  65.00  36.00     0.18883    
  65.00  37.00     0.33873    
  65.00  38.00     0.45903    
  65.00  39.00     0.54081    
  65.00  40.00     0.57818    
  65.00  41.00     0.56884    
  65.00  42.00     0.51436    
  65.00  43.00     0.42001    
  65.00  44.00     0.29427    
  65.00  45.00     0.14808    
  65.00  46.00    -0.62522E-02
  65.00  47.00    -0.15620    
  65.00  48.00    -0.29021    
  65.00  49.00    -0.39879    
  65.00  50.00    -0.47537    
  65.00  51.00    -0.51686    
  65.00  52.00    -0.52386    
  65.00  53.00    -0.50045    
  65.00  54.00    -0.45357    
  65.00  55.00    -0.39256    
  65.00  56.00    -0.32745    
  65.00  57.00    -0.26836    
  65.00  58.00    -0.22385    
  65.00  59.00    -0.20095    
  65.00  60.00    -0.20301    
  65.00  61.00    -0.23039    
  65.00  62.00    -0.28014    
  65.00  63.00    -0.34659    
  65.00  64.00    -0.42161    
  65.00  65.00    -0.49548    
  65.00  66.00    -0.55867    
  65.00  67.00    -0.60253    
  65.00  68.00    -0.62023    
  65.00  69.00    -0.60758    
  65.00  70.00    -0.56371    
  65.00  71.00    -0.49145    
  65.00  72.00    -0.39635    
  65.00  73.00    -0.28642    
  65.00  74.00    -0.17195    
  65.00  75.00    -0.63776E-01
  65.00  76.00     0.28996E-01
  65.00  77.00     0.97708E-01
  65.00  78.00     0.13539    
  65.00  79.00     0.14018    
  65.00  80.00     0.11184    
  65.00  81.00     0.54271E-01
  65.00  82.00    -0.25763E-01
  65.00  83.00    -0.11902    
  65.00  84.00    -0.21627    
  65.00  85.00    -0.30688    
  65.00  86.00    -0.38186    
  65.00  87.00    -0.43406    
  65.00  88.00    -0.45747    
  65.00  89.00    -0.44995    
  66.00 -89.00    -0.48289E-02
  66.00 -88.00     0.21137E-01
  66.00 -87.00     0.48297E-01
  66.00 -86.00     0.76582E-01
  66.00 -85.00     0.10326    
  66.00 -84.00     0.12989    
  66.00 -83.00     0.15251    
  66.00 -82.00     0.17242    
  66.00 -81.00     0.18714    
  66.00 -80.00     0.19559    
  66.00 -79.00     0.19708    
  66.00 -78.00     0.19205    
  66.00 -77.00     0.17957    
  66.00 -76.00     0.15948    
  66.00 -75.00     0.13292    
  66.00 -74.00     0.10104    
  66.00 -73.00     0.63363E-01
  66.00 -72.00     0.21349E-01
  66.00 -71.00    -0.24060E-01
  66.00 -70.00    -0.70895E-01
  66.00 -69.00    -0.11823    
  66.00 -68.00    -0.16413    
  66.00 -67.00    -0.20660    
  66.00 -66.00    -0.24370    
  66.00 -65.00    -0.27337    
  66.00 -64.00    -0.29371    
  66.00 -63.00    -0.30297    
  66.00 -62.00    -0.29984    
  66.00 -61.00    -0.28347    
  66.00 -60.00    -0.25428    
  66.00 -59.00    -0.21287    
  66.00 -58.00    -0.16130    
  66.00 -57.00    -0.10205    
  66.00 -56.00    -0.38681E-01
  66.00 -55.00     0.24760E-01
  66.00 -54.00     0.83798E-01
  66.00 -53.00     0.13440    
  66.00 -52.00     0.17217    
  66.00 -51.00     0.19384    
  66.00 -50.00     0.19701    
  66.00 -49.00     0.18047    
  66.00 -48.00     0.14433    
  66.00 -47.00     0.90114E-01
  66.00 -46.00     0.20584E-01
  66.00 -45.00    -0.60393E-01
  66.00 -44.00    -0.14817    
  66.00 -43.00    -0.23769    
  66.00 -42.00    -0.32386    
  66.00 -41.00    -0.40196    
  66.00 -40.00    -0.46802    
  66.00 -39.00    -0.51905    
  66.00 -38.00    -0.55325    
  66.00 -37.00    -0.57007    
  66.00 -36.00    -0.57017    
  66.00 -35.00    -0.55523    
  66.00 -34.00    -0.52771    
  66.00 -33.00    -0.49058    
  66.00 -32.00    -0.44697    
  66.00 -31.00    -0.39988    
  66.00 -30.00    -0.35189    
  66.00 -29.00    -0.30504    
  66.00 -28.00    -0.26068    
  66.00 -27.00    -0.21954    
  66.00 -26.00    -0.18174    
  66.00 -25.00    -0.14704    
  66.00 -24.00    -0.11500    
  66.00 -23.00    -0.85201E-01
  66.00 -22.00    -0.57483E-01
  66.00 -21.00    -0.32065E-01
  66.00 -20.00    -0.96489E-02
  66.00 -19.00     0.85814E-02
  66.00 -18.00     0.21040E-01
  66.00 -17.00     0.25892E-01
  66.00 -16.00     0.21263E-01
  66.00 -15.00     0.54729E-02
  66.00 -14.00    -0.22728E-01
  66.00 -13.00    -0.63961E-01
  66.00 -12.00    -0.11807    
  66.00 -11.00    -0.18408    
  66.00 -10.00    -0.26018    
  66.00  -9.00    -0.34387    
  66.00  -8.00    -0.43213    
  66.00  -7.00    -0.52163    
  66.00  -6.00    -0.60902    
  66.00  -5.00    -0.69114    
  66.00  -4.00    -0.76529    
  66.00  -3.00    -0.82932    
  66.00  -2.00    -0.88174    
  66.00  -1.00    -0.92177    
  66.00   0.00    -0.94919    
  66.00   1.00    -0.96429    
  66.00   2.00    -0.96766    
  66.00   3.00    -0.96009    
  66.00   4.00    -0.94238    
  66.00   5.00    -0.91528    
  66.00   6.00    -0.87943    
  66.00   7.00    -0.83543    
  66.00   8.00    -0.78392    
  66.00   9.00    -0.72572    
  66.00  10.00    -0.66199    
  66.00  11.00    -0.59439    
  66.00  12.00    -0.52518    
  66.00  13.00    -0.45720    
  66.00  14.00    -0.39384    
  66.00  15.00    -0.33884    
  66.00  16.00    -0.29602    
  66.00  17.00    -0.26888    
  66.00  18.00    -0.26021    
  66.00  19.00    -0.27168    
  66.00  20.00    -0.30348    
  66.00  21.00    -0.35406    
  66.00  22.00    -0.42005    
  66.00  23.00    -0.49630    
  66.00  24.00    -0.57617    
  66.00  25.00    -0.65199    
  66.00  26.00    -0.71567    
  66.00  27.00    -0.75942    
  66.00  28.00    -0.77650    
  66.00  29.00    -0.76195    
  66.00  30.00    -0.71320    
  66.00  31.00    -0.63048    
  66.00  32.00    -0.51696    
  66.00  33.00    -0.37872    
  66.00  34.00    -0.22428    
  66.00  35.00    -0.64006E-01
  66.00  36.00     0.90756E-01
  66.00  37.00     0.22868    
  66.00  38.00     0.33946    
  66.00  39.00     0.41480    
  66.00  40.00     0.44917    
  66.00  41.00     0.44041    
  66.00  42.00     0.38989    
  66.00  43.00     0.30249    
  66.00  44.00     0.18613    
  66.00  45.00     0.51027E-01
  66.00  46.00    -0.91275E-01
  66.00  47.00    -0.22898    
  66.00  48.00    -0.35119    
  66.00  49.00    -0.44890    
  66.00  50.00    -0.51587    
  66.00  51.00    -0.54914    
  66.00  52.00    -0.54925    
  66.00  53.00    -0.52009    
  66.00  54.00    -0.46827    
  66.00  55.00    -0.40281    
  66.00  56.00    -0.33332    
  66.00  57.00    -0.26962    
  66.00  58.00    -0.22007    
  66.00  59.00    -0.19162    
  66.00  60.00    -0.18762    
  66.00  61.00    -0.20867    
  66.00  62.00    -0.25204    
  66.00  63.00    -0.31249    
  66.00  64.00    -0.38222    
  66.00  65.00    -0.45189    
  66.00  66.00    -0.51226    
  66.00  67.00    -0.55483    
  66.00  68.00    -0.57285    
  66.00  69.00    -0.56203    
  66.00  70.00    -0.52130    
  66.00  71.00    -0.45321    
  66.00  72.00    -0.36296    
  66.00  73.00    -0.25806    
  66.00  74.00    -0.14843    
  66.00  75.00    -0.44622E-01
  66.00  76.00     0.44633E-01
  66.00  77.00     0.11074    
  66.00  78.00     0.14670    
  66.00  79.00     0.15069    
  66.00  80.00     0.12222    
  66.00  81.00     0.64922E-01
  66.00  82.00    -0.14690E-01
  66.00  83.00    -0.10751    
  66.00  84.00    -0.20478    
  66.00  85.00    -0.29598    
  66.00  86.00    -0.37216    
  66.00  87.00    -0.42607    
  66.00  88.00    -0.45184    
  66.00  89.00    -0.44704    
  67.00 -89.00    -0.55277E-02
  67.00 -88.00     0.19876E-01
  67.00 -87.00     0.46533E-01
  67.00 -86.00     0.74442E-01
  67.00 -85.00     0.10082    
  67.00 -84.00     0.12729    
  67.00 -83.00     0.15039    
  67.00 -82.00     0.16977    
  67.00 -81.00     0.18474    
  67.00 -80.00     0.19383    
  67.00 -79.00     0.19629    
  67.00 -78.00     0.19277    
  67.00 -77.00     0.18240    
  67.00 -76.00     0.16491    
  67.00 -75.00     0.14154    
  67.00 -74.00     0.11336    
  67.00 -73.00     0.79587E-01
  67.00 -72.00     0.41585E-01
  67.00 -71.00     0.14208E-03
  67.00 -70.00    -0.43162E-01
  67.00 -69.00    -0.87536E-01
  67.00 -68.00    -0.13134    
  67.00 -67.00    -0.17266    
  67.00 -66.00    -0.20970    
  67.00 -65.00    -0.24032    
  67.00 -64.00    -0.26258    
  67.00 -63.00    -0.27441    
  67.00 -62.00    -0.27428    
  67.00 -61.00    -0.26092    
  67.00 -60.00    -0.23440    
  67.00 -59.00    -0.19497    
  67.00 -58.00    -0.14432    
  67.00 -57.00    -0.84748E-01
  67.00 -56.00    -0.19706E-01
  67.00 -55.00     0.46709E-01
  67.00 -54.00     0.10983    
  67.00 -53.00     0.16527    
  67.00 -52.00     0.20817    
  67.00 -51.00     0.23472    
  67.00 -50.00     0.24194    
  67.00 -49.00     0.22808    
  67.00 -48.00     0.19282    
  67.00 -47.00     0.13735    
  67.00 -46.00     0.64334E-01
  67.00 -45.00    -0.22291E-01
  67.00 -44.00    -0.11758    
  67.00 -43.00    -0.21596    
  67.00 -42.00    -0.31169    
  67.00 -41.00    -0.39930    
  67.00 -40.00    -0.47399    
  67.00 -39.00    -0.53204    
  67.00 -38.00    -0.57101    
