 121.00 -46.00     -1.8596    
 121.00 -45.00     -1.8758    
 121.00 -44.00     -1.8453    
 121.00 -43.00     -1.7480    
 121.00 -42.00     -1.5654    
 121.00 -41.00     -1.2829    
 121.00 -40.00    -0.89142    
 121.00 -39.00    -0.38922    
 121.00 -38.00     0.21748    
 121.00 -37.00     0.91434    
 121.00 -36.00      1.6796    
 121.00 -35.00      2.4853    
 121.00 -34.00      3.2996    
 121.00 -33.00      4.0887    
 121.00 -32.00      4.8199    
 121.00 -31.00      5.4637    
 121.00 -30.00      5.9962    
 121.00 -29.00      6.4007    
 121.00 -28.00      6.6689    
 121.00 -27.00      6.8007    
 121.00 -26.00      6.8040    
 121.00 -25.00      6.6937    
 121.00 -24.00      6.4893    
 121.00 -23.00      6.2132    
 121.00 -22.00      5.8886    
 121.00 -21.00      5.5368    
 121.00 -20.00      5.1756    
 121.00 -19.00      4.8182    
 121.00 -18.00      4.4719    
 121.00 -17.00      4.1387    
 121.00 -16.00      3.8153    
 121.00 -15.00      3.4947    
 121.00 -14.00      3.1674    
 121.00 -13.00      2.8233    
 121.00 -12.00      2.4537    
 121.00 -11.00      2.0524    
 121.00 -10.00      1.6172    
 121.00  -9.00      1.1506    
 121.00  -8.00     0.65979    
 121.00  -7.00     0.15606    
 121.00  -6.00    -0.34599    
 121.00  -5.00    -0.82992    
 121.00  -4.00     -1.2791    
 121.00  -3.00     -1.6784    
 121.00  -2.00     -2.0154    
 121.00  -1.00     -2.2822    
 121.00   0.00     -2.4754    
 121.00   1.00     -2.5970    
 121.00   2.00     -2.6535    
 121.00   3.00     -2.6556    
 121.00   4.00     -2.6165    
 121.00   5.00     -2.5510    
 121.00   6.00     -2.4735    
 121.00   7.00     -2.3968    
 121.00   8.00     -2.3310    
 121.00   9.00     -2.2826    
 121.00  10.00     -2.2542    
 121.00  11.00     -2.2447    
 121.00  12.00     -2.2498    
 121.00  13.00     -2.2631    
 121.00  14.00     -2.2771    
 121.00  15.00     -2.2843    
 121.00  16.00     -2.2788    
 121.00  17.00     -2.2568    
 121.00  18.00     -2.2173    
 121.00  19.00     -2.1622    
 121.00  20.00     -2.0961    
 121.00  21.00     -2.0256    
 121.00  22.00     -1.9587    
 121.00  23.00     -1.9030    
 121.00  24.00     -1.8652    
 121.00  25.00     -1.8500    
 121.00  26.00     -1.8589    
 121.00  27.00     -1.8905    
 121.00  28.00     -1.9401    
 121.00  29.00     -2.0002    
 121.00  30.00     -2.0614    
 121.00  31.00     -2.1135    
 121.00  32.00     -2.1467    
 121.00  33.00     -2.1526    
 121.00  34.00     -2.1257    
 121.00  35.00     -2.0635    
 121.00  36.00     -1.9673    
 121.00  37.00     -1.8418    
 121.00  38.00     -1.6946    
 121.00  39.00     -1.5353    
 121.00  40.00     -1.3738    
 121.00  41.00     -1.2194    
 121.00  42.00     -1.0794    
 121.00  43.00    -0.95757    
 121.00  44.00    -0.85375    
 121.00  45.00    -0.76339    
 121.00  46.00    -0.67781    
 121.00  47.00    -0.58496    
 121.00  48.00    -0.47071    
 121.00  49.00    -0.32034    
 121.00  50.00    -0.12039    
 121.00  51.00     0.13963    
 121.00  52.00     0.46569    
 121.00  53.00     0.85809    
 121.00  54.00      1.3109    
 121.00  55.00      1.8116    
 121.00  56.00      2.3424    
 121.00  57.00      2.8808    
 121.00  58.00      3.4015    
 121.00  59.00      3.8791    
 121.00  60.00      4.2888    
 121.00  61.00      4.6100    
 121.00  62.00      4.8268    
 121.00  63.00      4.9304    
 121.00  64.00      4.9188    
 121.00  65.00      4.7971    
 121.00  66.00      4.5767    
 121.00  67.00      4.2743    
 121.00  68.00      3.9112    
 121.00  69.00      3.5076    
 121.00  70.00      3.0863    
 121.00  71.00      2.6657    
 121.00  72.00      2.2623    
 121.00  73.00      1.8863    
 121.00  74.00      1.5443    
 121.00  75.00      1.2388    
 121.00  76.00     0.96314    
 121.00  77.00     0.71343    
 121.00  78.00     0.48377    
 121.00  79.00     0.26441    
 121.00  80.00     0.56370E-01
 121.00  81.00    -0.14054    
 121.00  82.00    -0.33821    
 121.00  83.00    -0.51318    
 121.00  84.00    -0.66464    
 121.00  85.00    -0.78335    
 121.00  86.00    -0.84641    
 121.00  87.00    -0.84129    
 121.00  88.00    -0.76697    
 121.00  89.00    -0.60136    
 122.00 -89.00      1.7261    
 122.00 -88.00      1.9278    
 122.00 -87.00      2.1241    
 122.00 -86.00      2.3043    
 122.00 -85.00      2.4731    
 122.00 -84.00      2.6198    
 122.00 -83.00      2.7585    
 122.00 -82.00      2.8812    
 122.00 -81.00      3.0007    
 122.00 -80.00      3.1234    
 122.00 -79.00      3.2489    
 122.00 -78.00      3.3837    
 122.00 -77.00      3.5244    
 122.00 -76.00      3.6654    
 122.00 -75.00      3.7986    
 122.00 -74.00      3.9102    
 122.00 -73.00      3.9908    
 122.00 -72.00      4.0237    
 122.00 -71.00      3.9977    
 122.00 -70.00      3.8998    
 122.00 -69.00      3.7240    
 122.00 -68.00      3.4671    
 122.00 -67.00      3.1314    
 122.00 -66.00      2.7256    
 122.00 -65.00      2.2633    
 122.00 -64.00      1.7616    
 122.00 -63.00      1.2400    
 122.00 -62.00     0.72156    
 122.00 -61.00     0.22543    
 122.00 -60.00    -0.22914    
 122.00 -59.00    -0.62763    
 122.00 -58.00    -0.96183    
 122.00 -57.00     -1.2279    
 122.00 -56.00     -1.4281    
 122.00 -55.00     -1.5707    
 122.00 -54.00     -1.6667    
 122.00 -53.00     -1.7300    
 122.00 -52.00     -1.7751    
 122.00 -51.00     -1.8145    
 122.00 -50.00     -1.8578    
 122.00 -49.00     -1.9095    
 122.00 -48.00     -1.9685    
 122.00 -47.00     -2.0278    
 122.00 -46.00     -2.0748    
 122.00 -45.00     -2.0925    
 122.00 -44.00     -2.0611    
 122.00 -43.00     -1.9602    
 122.00 -42.00     -1.7711    
 122.00 -41.00     -1.4789    
 122.00 -40.00     -1.0749    
 122.00 -39.00    -0.55730    
 122.00 -38.00     0.67041E-01
 122.00 -37.00     0.78315    
 122.00 -36.00      1.5684    
 122.00 -35.00      2.3942    
 122.00 -34.00      3.2276    
 122.00 -33.00      4.0342    
 122.00 -32.00      4.7807    
 122.00 -31.00      5.4372    
 122.00 -30.00      5.9798    
 122.00 -29.00      6.3920    
 122.00 -28.00      6.6657    
 122.00 -27.00      6.8017    
 122.00 -26.00      6.8088    
 122.00 -25.00      6.7025    
 122.00 -24.00      6.5036    
 122.00 -23.00      6.2351    
 122.00 -22.00      5.9209    
 122.00 -21.00      5.5825    
 122.00 -20.00      5.2379    
 122.00 -19.00      4.8999    
 122.00 -18.00      4.5754    
 122.00 -17.00      4.2652    
 122.00 -16.00      3.9650    
 122.00 -15.00      3.6666    
 122.00 -14.00      3.3591    
 122.00 -13.00      3.0315    
 122.00 -12.00      2.6737    
 122.00 -11.00      2.2792    
 122.00 -10.00      1.8454    
 122.00  -9.00      1.3749    
 122.00  -8.00     0.87531    
 122.00  -7.00     0.35903    
 122.00  -6.00    -0.15808    
 122.00  -5.00    -0.65800    
 122.00  -4.00     -1.1224    
 122.00  -3.00     -1.5343    
 122.00  -2.00     -1.8799    
 122.00  -1.00     -2.1495    
 122.00   0.00     -2.3390    
 122.00   1.00     -2.4496    
 122.00   2.00     -2.4877    
 122.00   3.00     -2.4644    
 122.00   4.00     -2.3941    
 122.00   5.00     -2.2927    
 122.00   6.00     -2.1766    
 122.00   7.00     -2.0608    
 122.00   8.00     -1.9575    
 122.00   9.00     -1.8757    
 122.00  10.00     -1.8200    
 122.00  11.00     -1.7912    
 122.00  12.00     -1.7867    
 122.00  13.00     -1.8010    
 122.00  14.00     -1.8272    
 122.00  15.00     -1.8578    
 122.00  16.00     -1.8864    
 122.00  17.00     -1.9080    
 122.00  18.00     -1.9201    
 122.00  19.00     -1.9228    
 122.00  20.00     -1.9188    
 122.00  21.00     -1.9127    
 122.00  22.00     -1.9100    
 122.00  23.00     -1.9167    
 122.00  24.00     -1.9378    
 122.00  25.00     -1.9764    
 122.00  26.00     -2.0331    
 122.00  27.00     -2.1058    
 122.00  28.00     -2.1895    
 122.00  29.00     -2.2766    
 122.00  30.00     -2.3580    
 122.00  31.00     -2.4241    
 122.00  32.00     -2.4654    
 122.00  33.00     -2.4745    
 122.00  34.00     -2.4464    
 122.00  35.00     -2.3792    
 122.00  36.00     -2.2748    
 122.00  37.00     -2.1384    
 122.00  38.00     -1.9780    
 122.00  39.00     -1.8035    
 122.00  40.00     -1.6252    
 122.00  41.00     -1.4527    
 122.00  42.00     -1.2934    
 122.00  43.00     -1.1517    
 122.00  44.00     -1.0278    
 122.00  45.00    -0.91767    
 122.00  46.00    -0.81315    
 122.00  47.00    -0.70283    
 122.00  48.00    -0.57313    
 122.00  49.00    -0.40989    
 122.00  50.00    -0.20006    
 122.00  51.00     0.66544E-01
 122.00  52.00     0.39579    
 122.00  53.00     0.78803    
 122.00  54.00      1.2376    
 122.00  55.00      1.7325    
 122.00  56.00      2.2556    
 122.00  57.00      2.7850    
 122.00  58.00      3.2963    
 122.00  59.00      3.7647    
 122.00  60.00      4.1663    
 122.00  61.00      4.4809    
 122.00  62.00      4.6932    
 122.00  63.00      4.7943    
 122.00  64.00      4.7822    
 122.00  65.00      4.6621    
 122.00  66.00      4.4449    
 122.00  67.00      4.1469    
 122.00  68.00      3.7889    
 122.00  69.00      3.3905    
 122.00  70.00      2.9741    
 122.00  71.00      2.5581    
 122.00  72.00      2.1583    
 122.00  73.00      1.7856    
 122.00  74.00      1.4463    
 122.00  75.00      1.1429    
 122.00  76.00     0.86959    
 122.00  77.00     0.62289    
 122.00  78.00     0.39702    
 122.00  79.00     0.18282    
 122.00  80.00    -0.18841E-01
 122.00  81.00    -0.20786    
 122.00  82.00    -0.39697    
 122.00  83.00    -0.56284    
 122.00  84.00    -0.70503    
 122.00  85.00    -0.81262    
 122.00  86.00    -0.86676    
 122.00  87.00    -0.85384    
 122.00  88.00    -0.77344    
 122.00  89.00    -0.60360    
 123.00 -89.00      1.7193    
 123.00 -88.00      1.9149    
 123.00 -87.00      2.1064    
 123.00 -86.00      2.2827    
 123.00 -85.00      2.4500    
 123.00 -84.00      2.5971    
 123.00 -83.00      2.7371    
 123.00 -82.00      2.8644    
 123.00 -81.00      2.9908    
 123.00 -80.00      3.1229    
 123.00 -79.00      3.2600    
 123.00 -78.00      3.4086    
 123.00 -77.00      3.5646    
 123.00 -76.00      3.7217    
 123.00 -75.00      3.8708    
 123.00 -74.00      3.9976    
 123.00 -73.00      4.0920    
 123.00 -72.00      4.1357    
 123.00 -71.00      4.1167    
 123.00 -70.00      4.0219    
 123.00 -69.00      3.8443    
 123.00 -68.00      3.5806    
 123.00 -67.00      3.2334    
 123.00 -66.00      2.8115    
 123.00 -65.00      2.3292    
 123.00 -64.00      1.8043    
 123.00 -63.00      1.2573    
 123.00 -62.00     0.71191    
 123.00 -61.00     0.18874    
 123.00 -60.00    -0.29231    
 123.00 -59.00    -0.71597    
 123.00 -58.00     -1.0734    
 123.00 -57.00     -1.3603    
 123.00 -56.00     -1.5788    
 123.00 -55.00     -1.7371    
 123.00 -54.00     -1.8463    
 123.00 -53.00     -1.9206    
 123.00 -52.00     -1.9747    
 123.00 -51.00     -2.0215    
 123.00 -50.00     -2.0706    
 123.00 -49.00     -2.1268    
 123.00 -48.00     -2.1890    
 123.00 -47.00     -2.2501    
 123.00 -46.00     -2.2973    
 123.00 -45.00     -2.3135    
 123.00 -44.00     -2.2787    
 123.00 -43.00     -2.1723    
 123.00 -42.00     -1.9755    
 123.00 -41.00     -1.6735    
 123.00 -40.00     -1.2575    
 123.00 -39.00    -0.72648    
 123.00 -38.00    -0.87483E-01
 123.00 -37.00     0.64386    
 123.00 -36.00      1.4443    
 123.00 -35.00      2.2845    
 123.00 -34.00      3.1311    
 123.00 -33.00      3.9490    
 123.00 -32.00      4.7048    
 123.00 -31.00      5.3685    
 123.00 -30.00      5.9163    
 123.00 -29.00      6.3321    
 123.00 -28.00      6.6085    
 123.00 -27.00      6.7470    
 123.00 -26.00      6.7574    
 123.00 -25.00      6.6561    
 123.00 -24.00      6.4646    
 123.00 -23.00      6.2067    
 123.00 -22.00      5.9065    
 123.00 -21.00      5.5860    
 123.00 -20.00      5.2627    
 123.00 -19.00      4.9490    
 123.00 -18.00      4.6510    
 123.00 -17.00      4.3683    
 123.00 -16.00      4.0955    
 123.00 -15.00      3.8229    
 123.00 -14.00      3.5383    
 123.00 -13.00      3.2295    
 123.00 -12.00      2.8857    
 123.00 -11.00      2.4993    
 123.00 -10.00      2.0679    
 123.00  -9.00      1.5940    
 123.00  -8.00      1.0861    
 123.00  -7.00     0.55736    
 123.00  -6.00     0.25180E-01
 123.00  -5.00    -0.49087    
 123.00  -4.00    -0.97069    
 123.00  -3.00     -1.3956    
 123.00  -2.00     -1.7500    
 123.00  -1.00     -2.0230    
 123.00   0.00     -2.2093    
 123.00   1.00     -2.3096    
 123.00   2.00     -2.3302    
 123.00   3.00     -2.2826    
 123.00   4.00     -2.1820    
 123.00   5.00     -2.0460    
 123.00   6.00     -1.8925    
 123.00   7.00     -1.7386    
 123.00   8.00     -1.5988    
 123.00   9.00     -1.4842    
 123.00  10.00     -1.4017    
 123.00  11.00     -1.3539    
 123.00  12.00     -1.3395    
 123.00  13.00     -1.3541    
 123.00  14.00     -1.3915    
 123.00  15.00     -1.4440    
 123.00  16.00     -1.5047    
 123.00  17.00     -1.5676    
 123.00  18.00     -1.6287    
 123.00  19.00     -1.6866    
 123.00  20.00     -1.7418    
 123.00  21.00     -1.7969    
 123.00  22.00     -1.8555    
 123.00  23.00     -1.9218    
 123.00  24.00     -1.9989    
 123.00  25.00     -2.0889    
 123.00  26.00     -2.1914    
 123.00  27.00     -2.3036    
 123.00  28.00     -2.4202    
 123.00  29.00     -2.5338    
 123.00  30.00     -2.6356    
 123.00  31.00     -2.7164    
 123.00  32.00     -2.7675    
 123.00  33.00     -2.7821    
 123.00  34.00     -2.7556    
 123.00  35.00     -2.6872    
 123.00  36.00     -2.5789    
 123.00  37.00     -2.4365    
 123.00  38.00     -2.2682    
 123.00  39.00     -2.0840    
 123.00  40.00     -1.8945    
 123.00  41.00     -1.7093    
 123.00  42.00     -1.5362    
 123.00  43.00     -1.3795    
 123.00  44.00     -1.2398    
 123.00  45.00     -1.1135    
 123.00  46.00    -0.99284    
 123.00  47.00    -0.86694    
 123.00  48.00    -0.72279    
 123.00  49.00    -0.54675    
 123.00  50.00    -0.32627    
 123.00  51.00    -0.51530E-01
 123.00  52.00     0.28311    
 123.00  53.00     0.67796    
 123.00  54.00      1.1275    
 123.00  55.00      1.6200    
 123.00  56.00      2.1389    
 123.00  57.00      2.6628    
 123.00  58.00      3.1680    
 123.00  59.00      3.6304    
 123.00  60.00      4.0269    
 123.00  61.00      4.3376    
 123.00  62.00      4.5476    
 123.00  63.00      4.6484    
 123.00  64.00      4.6377    
 123.00  65.00      4.5207    
 123.00  66.00      4.3081    
 123.00  67.00      4.0157    
 123.00  68.00      3.6638    
 123.00  69.00      3.2714    
 123.00  70.00      2.8606    
 123.00  71.00      2.4498    
 123.00  72.00      2.0543    
 123.00  73.00      1.6852    
 123.00  74.00      1.3490    
 123.00  75.00      1.0481    
 123.00  76.00     0.77721    
 123.00  77.00     0.53362    
 123.00  78.00     0.31152    
 123.00  79.00     0.10238    
 123.00  80.00    -0.93025E-01
 123.00  81.00    -0.27433    
 123.00  82.00    -0.45500    
 123.00  83.00    -0.61202    
 123.00  84.00    -0.74514    
 123.00  85.00    -0.84159    
 123.00  86.00    -0.88687    
 123.00  87.00    -0.86634    
 123.00  88.00    -0.77976    
 123.00  89.00    -0.60577    
 124.00 -89.00      1.7124    
 124.00 -88.00      1.9019    
 124.00 -87.00      2.0885    
 124.00 -86.00      2.2607    
 124.00 -85.00      2.4264    
 124.00 -84.00      2.5736    
 124.00 -83.00      2.7145    
 124.00 -82.00      2.8464    
 124.00 -81.00      2.9793    
 124.00 -80.00      3.1203    
 124.00 -79.00      3.2686    
 124.00 -78.00      3.4304    
 124.00 -77.00      3.6009    
 124.00 -76.00      3.7733    
 124.00 -75.00      3.9378    
 124.00 -74.00      4.0793    
 124.00 -73.00      4.1868    
 124.00 -72.00      4.2408    
 124.00 -71.00      4.2284    
 124.00 -70.00      4.1361    
 124.00 -69.00      3.9565    
 124.00 -68.00      3.6857    
 124.00 -67.00      3.3267    
 124.00 -66.00      2.8884    
 124.00 -65.00      2.3856    
 124.00 -64.00      1.8368    
 124.00 -63.00      1.2637    
 124.00 -62.00     0.69065    
 124.00 -61.00     0.13951    
 124.00 -60.00    -0.36907    
 124.00 -59.00    -0.81899    
 124.00 -58.00     -1.2006    
 124.00 -57.00     -1.5093    
 124.00 -56.00     -1.7469    
 124.00 -55.00     -1.9211    
 124.00 -54.00     -2.0435    
 124.00 -53.00     -2.1283    
 124.00 -52.00     -2.1902    
 124.00 -51.00     -2.2426    
 124.00 -50.00     -2.2953    
 124.00 -49.00     -2.3532    
 124.00 -48.00     -2.4154    
 124.00 -47.00     -2.4749    
 124.00 -46.00     -2.5190    
 124.00 -45.00     -2.5304    
 124.00 -44.00     -2.4894    
 124.00 -43.00     -2.3752    
 124.00 -42.00     -2.1693    
 124.00 -41.00     -1.8569    
 124.00 -40.00     -1.4297    
 124.00 -39.00    -0.88683    
 124.00 -38.00    -0.23593    
 124.00 -37.00     0.50691    
 124.00 -36.00      1.3180    
 124.00 -35.00      2.1674    
 124.00 -34.00      3.0215    
 124.00 -33.00      3.8451    
 124.00 -32.00      4.6046    
 124.00 -31.00      5.2702    
 124.00 -30.00      5.8187    
 124.00 -29.00      6.2345    
 124.00 -28.00      6.5109    
 124.00 -27.00      6.6504    
 124.00 -26.00      6.6636    
 124.00 -25.00      6.5678    
 124.00 -24.00      6.3851    
 124.00 -23.00      6.1401    
 124.00 -22.00      5.8569    
 124.00 -21.00      5.5574    
 124.00 -20.00      5.2590    
 124.00 -19.00      4.9731    
 124.00 -18.00      4.7049    
 124.00 -17.00      4.4530    
 124.00 -16.00      4.2103    
 124.00 -15.00      3.9659    
 124.00 -14.00      3.7064    
 124.00 -13.00      3.4181    
 124.00 -12.00      3.0895    
 124.00 -11.00      2.7125    
 124.00 -10.00      2.2842    
 124.00  -9.00      1.8077    
 124.00  -8.00      1.2920    
 124.00  -7.00     0.75136    
 124.00  -6.00     0.20447    
 124.00  -5.00    -0.32749    
 124.00  -4.00    -0.82272    
 124.00  -3.00     -1.2608    
 124.00  -2.00     -1.6247    
 124.00  -1.00     -1.9021    
 124.00   0.00     -2.0867    
 124.00   1.00     -2.1786    
 124.00   2.00     -2.1841    
 124.00   3.00     -2.1150    
 124.00   4.00     -1.9874    
 124.00   5.00     -1.8200    
 124.00   6.00     -1.6326    
 124.00   7.00     -1.4442    
 124.00   8.00     -1.2712    
 124.00   9.00     -1.1267    
 124.00  10.00     -1.0197    
 124.00  11.00    -0.95445    
 124.00  12.00    -0.93106    
 124.00  13.00    -0.94613    
 124.00  14.00    -0.99369    
 124.00  15.00     -1.0663    
 124.00  16.00     -1.1564    
 124.00  17.00     -1.2572    
 124.00  18.00     -1.3633    
 124.00  19.00     -1.4716    
 124.00  20.00     -1.5808    
 124.00  21.00     -1.6917    
 124.00  22.00     -1.8061    
 124.00  23.00     -1.9264    
 124.00  24.00     -2.0545    
 124.00  25.00     -2.1910    
 124.00  26.00     -2.3349    
 124.00  27.00     -2.4828    
 124.00  28.00     -2.6294    
 124.00  29.00     -2.7673    
 124.00  30.00     -2.8882    
 124.00  31.00     -2.9834    
 124.00  32.00     -3.0448    
 124.00  33.00     -3.0663    
 124.00  34.00     -3.0442    
 124.00  35.00     -2.9777    
 124.00  36.00     -2.8697    
 124.00  37.00     -2.7261    
 124.00  38.00     -2.5552    
 124.00  39.00     -2.3671    
 124.00  40.00     -2.1723    
 124.00  41.00     -1.9804    
 124.00  42.00     -1.7991    
 124.00  43.00     -1.6329    
 124.00  44.00     -1.4823    
 124.00  45.00     -1.3440    
 124.00  46.00     -1.2107    
 124.00  47.00     -1.0718    
 124.00  48.00    -0.91485    
 124.00  49.00    -0.72678    
 124.00  50.00    -0.49553    
 124.00  51.00    -0.21171    
 124.00  52.00     0.12997    
 124.00  53.00     0.52967    
 124.00  54.00     0.98181    
 124.00  55.00      1.4750    
 124.00  56.00      1.9928    
 124.00  57.00      2.5146    
 124.00  58.00      3.0169    
 124.00  59.00      3.4765    
 124.00  60.00      3.8707    
 124.00  61.00      4.1802    
 124.00  62.00      4.3903    
 124.00  63.00      4.4928    
 124.00  64.00      4.4853    
 124.00  65.00      4.3731    
 124.00  66.00      4.1664    
 124.00  67.00      3.8808    
 124.00  68.00      3.5359    
 124.00  69.00      3.1504    
 124.00  70.00      2.7461    
 124.00  71.00      2.3411    
 124.00  72.00      1.9505    
 124.00  73.00      1.5855    
 124.00  74.00      1.2527    
 124.00  75.00     0.95442    
 124.00  76.00     0.68616    
 124.00  77.00     0.44575    
 124.00  78.00     0.22739    
 124.00  79.00     0.23198E-01
 124.00  80.00    -0.16609    
 124.00  81.00    -0.33985    
 124.00  82.00    -0.51222    
 124.00  83.00    -0.66062    
 124.00  84.00    -0.78486    
 124.00  85.00    -0.87021    
 124.00  86.00    -0.90672    
 124.00  87.00    -0.87877    
 124.00  88.00    -0.78595    
 124.00  89.00    -0.60787    
 125.00 -89.00      1.7054    
 125.00 -88.00      1.8887    
 125.00 -87.00      2.0704    
 125.00 -86.00      2.2385    
 125.00 -85.00      2.4022    
 125.00 -84.00      2.5495    
 125.00 -83.00      2.6906    
 125.00 -82.00      2.8270    
 125.00 -81.00      2.9660    
 125.00 -80.00      3.1154    
 125.00 -79.00      3.2742    
 125.00 -78.00      3.4486    
 125.00 -77.00      3.6329    
 125.00 -76.00      3.8199    
 125.00 -75.00      3.9989    
 125.00 -74.00      4.1543    
 125.00 -73.00      4.2742    
 125.00 -72.00      4.3379    
 125.00 -71.00      4.3315    
 125.00 -70.00      4.2414    
 125.00 -69.00      4.0593    
 125.00 -68.00      3.7812    
 125.00 -67.00      3.4101    
 125.00 -66.00      2.9552    
 125.00 -65.00      2.4317    
 125.00 -64.00      1.8587    
 125.00 -63.00      1.2591    
 125.00 -62.00     0.65790    
 125.00 -61.00     0.78247E-01
 125.00 -60.00    -0.45844    
 125.00 -59.00    -0.93524    
 125.00 -58.00     -1.3416    
 125.00 -57.00     -1.6724    
 125.00 -56.00     -1.9291    
 125.00 -55.00     -2.1191    
 125.00 -54.00     -2.2539    
 125.00 -53.00     -2.3479    
 125.00 -52.00     -2.4160    
 125.00 -51.00     -2.4717    
 125.00 -50.00     -2.5251    
 125.00 -49.00     -2.5814    
 125.00 -48.00     -2.6400    
 125.00 -47.00     -2.6942    
 125.00 -46.00     -2.7315    
 125.00 -45.00     -2.7347    
 125.00 -44.00     -2.6844    
 125.00 -43.00     -2.5601    
 125.00 -42.00     -2.3434    
 125.00 -41.00     -2.0201    
 125.00 -40.00     -1.5820    
 125.00 -39.00     -1.0288    
 125.00 -38.00    -0.36848    
 125.00 -37.00     0.38246    
 125.00 -36.00      1.1999    
 125.00 -35.00      2.0539    
 125.00 -34.00      2.9104    
 125.00 -33.00      3.7345    
 125.00 -32.00      4.4927    
 125.00 -31.00      5.1558    
 125.00 -30.00      5.7010    
 125.00 -29.00      6.1135    
 125.00 -28.00      6.3877    
 125.00 -27.00      6.5268    
 125.00 -26.00      6.5422    
 125.00 -25.00      6.4522    
 125.00 -24.00      6.2793    
 125.00 -23.00      6.0486    
 125.00 -22.00      5.7844    
 125.00 -21.00      5.5081    
 125.00 -20.00      5.2368    
 125.00 -19.00      4.9809    
 125.00 -18.00      4.7446    
 125.00 -17.00      4.5251    
 125.00 -16.00      4.3142    
 125.00 -15.00      4.0993    
 125.00 -14.00      3.8658    
 125.00 -13.00      3.5990    
 125.00 -12.00      3.2864    
 125.00 -11.00      2.9196    
 125.00 -10.00      2.4954    
 125.00  -9.00      2.0171    
 125.00  -8.00      1.4945    
 125.00  -7.00     0.94285    
 125.00  -6.00     0.38205    
 125.00  -5.00    -0.16525    
 125.00  -4.00    -0.67566    
 125.00  -3.00     -1.1272    
 125.00  -2.00     -1.5014    
 125.00  -1.00     -1.7848    
 125.00   0.00     -1.9700    
 125.00   1.00     -2.0567    
 125.00   2.00     -2.0510    
 125.00   3.00     -1.9651    
 125.00   4.00     -1.8157    
 125.00   5.00     -1.6228    
 125.00   6.00     -1.4075    
 125.00   7.00     -1.1904    
 125.00   8.00    -0.98980    
 125.00   9.00    -0.82065    
 125.00  10.00    -0.69344    
 125.00  11.00    -0.61404    
 125.00  12.00    -0.58376    
 125.00  13.00    -0.60002    
 125.00  14.00    -0.65725    
 125.00  15.00    -0.74804    
 125.00  16.00    -0.86431    
 125.00  17.00    -0.99838    
 125.00  18.00     -1.1438    
 125.00  19.00     -1.2959    
 125.00  20.00     -1.4520    
 125.00  21.00     -1.6111    
 125.00  22.00     -1.7734    
 125.00  23.00     -1.9399    
 125.00  24.00     -2.1112    
 125.00  25.00     -2.2870    
 125.00  26.00     -2.4656    
 125.00  27.00     -2.6434    
 125.00  28.00     -2.8150    
 125.00  29.00     -2.9733    
 125.00  30.00     -3.1104    
 125.00  31.00     -3.2182    
 125.00  32.00     -3.2895    
 125.00  33.00     -3.3185    
 125.00  34.00     -3.3023    
 125.00  35.00     -3.2406    
 125.00  36.00     -3.1365    
 125.00  37.00     -2.9961    
 125.00  38.00     -2.8278    
 125.00  39.00     -2.6415    
 125.00  40.00     -2.4474    
 125.00  41.00     -2.2550    
 125.00  42.00     -2.0717    
 125.00  43.00     -1.9018    
 125.00  44.00     -1.7458    
 125.00  45.00     -1.6004    
 125.00  46.00     -1.4584    
 125.00  47.00     -1.3098    
 125.00  48.00     -1.1426    
 125.00  49.00    -0.94398    
 125.00  50.00    -0.70261    
 125.00  51.00    -0.40953    
 125.00  52.00    -0.59868E-01
 125.00  53.00     0.34627    
 125.00  54.00     0.80315    
 125.00  55.00      1.2995    
 125.00  56.00      1.8191    
 125.00  57.00      2.3416    
 125.00  58.00      2.8439    
 125.00  59.00      3.3036    
 125.00  60.00      3.6983    
 125.00  61.00      4.0090    
 125.00  62.00      4.2216    
 125.00  63.00      4.3278    
 125.00  64.00      4.3253    
 125.00  65.00      4.2194    
 125.00  66.00      4.0200    
 125.00  67.00      3.7424    
 125.00  68.00      3.4056    
 125.00  69.00      3.0280    
 125.00  70.00      2.6308    
 125.00  71.00      2.2324    
 125.00  72.00      1.8471    
 125.00  73.00      1.4866    
 125.00  74.00      1.1575    
 125.00  75.00     0.86207    
 125.00  76.00     0.59659    
 125.00  77.00     0.35941    
 125.00  78.00     0.14476    
 125.00  79.00    -0.54617E-01
 125.00  80.00    -0.23795    
 125.00  81.00    -0.40436    
 125.00  82.00    -0.56856    
 125.00  83.00    -0.70855    
 125.00  84.00    -0.82405    
 125.00  85.00    -0.89847    
 125.00  86.00    -0.92628    
 125.00  87.00    -0.89112    
 125.00  88.00    -0.79199    
 125.00  89.00    -0.60989    
 126.00 -89.00      1.6984    
 126.00 -88.00      1.8753    
 126.00 -87.00      2.0522    
 126.00 -86.00      2.2161    
 126.00 -85.00      2.3776    
 126.00 -84.00      2.5246    
 126.00 -83.00      2.6656    
 126.00 -82.00      2.8061    
 126.00 -81.00      2.9508    
 126.00 -80.00      3.1081    
 126.00 -79.00      3.2768    
 126.00 -78.00      3.4628    
 126.00 -77.00      3.6601    
 126.00 -76.00      3.8608    
 126.00 -75.00      4.0535    
 126.00 -74.00      4.2219    
 126.00 -73.00      4.3533    
 126.00 -72.00      4.4261    
 126.00 -71.00      4.4250    
 126.00 -70.00      4.3366    
 126.00 -69.00      4.1516    
 126.00 -68.00      3.8660    
 126.00 -67.00      3.4827    
 126.00 -66.00      3.0110    
 126.00 -65.00      2.4667    
 126.00 -64.00      1.8696    
 126.00 -63.00      1.2434    
 126.00 -62.00     0.61394    
 126.00 -61.00     0.56892E-02
 126.00 -60.00    -0.55920    
 126.00 -59.00     -1.0629    
 126.00 -58.00     -1.4940    
 126.00 -57.00     -1.8466    
 126.00 -56.00     -2.1220    
 126.00 -55.00     -2.3268    
 126.00 -54.00     -2.4728    
 126.00 -53.00     -2.5742    
 126.00 -52.00     -2.6462    
 126.00 -51.00     -2.7023    
 126.00 -50.00     -2.7532    
 126.00 -49.00     -2.8044    
 126.00 -48.00     -2.8556    
 126.00 -47.00     -2.9005    
 126.00 -46.00     -2.9270    
 126.00 -45.00     -2.9185    
 126.00 -44.00     -2.8557    
 126.00 -43.00     -2.7188    
 126.00 -42.00     -2.4898    
 126.00 -41.00     -2.1548    
 126.00 -40.00     -1.7061    
 126.00 -39.00     -1.1438    
 126.00 -38.00    -0.47632    
 126.00 -37.00     0.27966    
 126.00 -36.00      1.0998    
 126.00 -35.00      1.9541    
 126.00 -34.00      2.8086    
 126.00 -33.00      3.6287    
 126.00 -32.00      4.3814    
 126.00 -31.00      5.0380    
 126.00 -30.00      5.5766    
 126.00 -29.00      5.9833    
 126.00 -28.00      6.2532    
 126.00 -27.00      6.3906    
 126.00 -26.00      6.4078    
 126.00 -25.00      6.3236    
 126.00 -24.00      6.1612    
 126.00 -23.00      5.9457    
 126.00 -22.00      5.7014    
 126.00 -21.00      5.4495    
 126.00 -20.00      5.2062    
 126.00 -19.00      4.9812    
 126.00 -18.00      4.7774    
 126.00 -17.00      4.5909    
 126.00 -16.00      4.4119    
 126.00 -15.00      4.2267    
 126.00 -14.00      4.0194    
 126.00 -13.00      3.7743    
 126.00 -12.00      3.4782    
 126.00 -11.00      3.1220    
 126.00 -10.00      2.7027    
 126.00  -9.00      2.2239    
 126.00  -8.00      1.6956    
 126.00  -7.00      1.1342    
 126.00  -6.00     0.56076    
 126.00  -5.00    -0.89240E-03
 126.00  -4.00    -0.52597    
 126.00  -3.00    -0.99116    
 126.00  -2.00     -1.3767    
 126.00  -1.00     -1.6679    
 126.00   0.00     -1.8570    
 126.00   1.00     -1.9427    
 126.00   2.00     -1.9313    
 126.00   3.00     -1.8350    
 126.00   4.00     -1.6712    
 126.00   5.00     -1.4607    
 126.00   6.00     -1.2257    
 126.00   7.00    -0.98820    
 126.00   8.00    -0.76795    
 126.00   9.00    -0.58126    
 126.00  10.00    -0.44005    
 126.00  11.00    -0.35138    
 126.00  12.00    -0.31752    
 126.00  13.00    -0.33658    
 126.00  14.00    -0.40329    
 126.00  15.00    -0.51022    
 126.00  16.00    -0.64888    
 126.00  17.00    -0.81087    
 126.00  18.00    -0.98877    
 126.00  19.00     -1.1767    
 126.00  20.00     -1.3706    
 126.00  21.00     -1.5682    
 126.00  22.00     -1.7684    
 126.00  23.00     -1.9710    
 126.00  24.00     -2.1756    
 126.00  25.00     -2.3813    
 126.00  26.00     -2.5860    
 126.00  27.00     -2.7858    
 126.00  28.00     -2.9755    
 126.00  29.00     -3.1485    
 126.00  30.00     -3.2974    
 126.00  31.00     -3.4147    
 126.00  32.00     -3.4939    
 126.00  33.00     -3.5300    
 126.00  34.00     -3.5204    
 126.00  35.00     -3.4654    
 126.00  36.00     -3.3683    
 126.00  37.00     -3.2351    
 126.00  38.00     -3.0742    
 126.00  39.00     -2.8951    
 126.00  40.00     -2.7077    
 126.00  41.00     -2.5210    
 126.00  42.00     -2.3420    
 126.00  43.00     -2.1745    
 126.00  44.00     -2.0189    
 126.00  45.00     -1.8718    
 126.00  46.00     -1.7261    
 126.00  47.00     -1.5719    
 126.00  48.00     -1.3975    
 126.00  49.00     -1.1908    
 126.00  50.00    -0.94079    
 126.00  51.00    -0.63913    
 126.00  52.00    -0.28137    
 126.00  53.00     0.13200    
 126.00  54.00     0.59501    
 126.00  55.00      1.0964    
 126.00  56.00      1.6199    
 126.00  57.00      2.1455    
 126.00  58.00      2.6505    
 126.00  59.00      3.1127    
 126.00  60.00      3.5103    
 126.00  61.00      3.8246    
 126.00  62.00      4.0418    
 126.00  63.00      4.1538    
 126.00  64.00      4.1581    
 126.00  65.00      4.0601    
 126.00  66.00      3.8694    
 126.00  67.00      3.6009    
 126.00  68.00      3.2732    
 126.00  69.00      2.9043    
 126.00  70.00      2.5151    
 126.00  71.00      2.1237    
 126.00  72.00      1.7444    
 126.00  73.00      1.3888    
 126.00  74.00      1.0637    
 126.00  75.00     0.77122    
 126.00  76.00     0.50864    
 126.00  77.00     0.27470    
 126.00  78.00     0.63717E-01
 126.00  79.00    -0.13097    
 126.00  80.00    -0.30850    
 126.00  81.00    -0.46779    
 126.00  82.00    -0.62396    
 126.00  83.00    -0.75571    
 126.00  84.00    -0.86258    
 126.00  85.00    -0.92633    
 126.00  86.00    -0.94554    
 126.00  87.00    -0.90338    
 126.00  88.00    -0.79787    
 126.00  89.00    -0.61183    
 127.00 -89.00      1.6914    
 127.00 -88.00      1.8618    
 127.00 -87.00      2.0337    
 127.00 -86.00      2.1934    
 127.00 -85.00      2.3523    
 127.00 -84.00      2.4989    
 127.00 -83.00      2.6394    
 127.00 -82.00      2.7838    
 127.00 -81.00      2.9337    
 127.00 -80.00      3.0981    
 127.00 -79.00      3.2760    
 127.00 -78.00      3.4729    
 127.00 -77.00      3.6822    
 127.00 -76.00      3.8955    
 127.00 -75.00      4.1008    
 127.00 -74.00      4.2813    
 127.00 -73.00      4.4234    
 127.00 -72.00      4.5043    
 127.00 -71.00      4.5079    
 127.00 -70.00      4.4207    
 127.00 -69.00      4.2324    
 127.00 -68.00      3.9391    
 127.00 -67.00      3.5435    
 127.00 -66.00      3.0552    
 127.00 -65.00      2.4903    
 127.00 -64.00      1.8691    
 127.00 -63.00      1.2167    
 127.00 -62.00     0.55931    
 127.00 -61.00    -0.77201E-01
 127.00 -60.00    -0.66988    
 127.00 -59.00     -1.2001    
 127.00 -58.00     -1.6552    
 127.00 -57.00     -2.0288    
 127.00 -56.00     -2.3216    
 127.00 -55.00     -2.5400    
 127.00 -54.00     -2.6952    
 127.00 -53.00     -2.8018    
 127.00 -52.00     -2.8749    
 127.00 -51.00     -2.9283    
 127.00 -50.00     -2.9731    
 127.00 -49.00     -3.0153    
 127.00 -48.00     -3.0550    
 127.00 -47.00     -3.0866    
 127.00 -46.00     -3.0984    
 127.00 -45.00     -3.0746    
 127.00 -44.00     -2.9964    
 127.00 -43.00     -2.8446    
 127.00 -42.00     -2.6016    
 127.00 -41.00     -2.2542    
 127.00 -40.00     -1.7952    
 127.00 -39.00     -1.2250    
 127.00 -38.00    -0.55229    
 127.00 -37.00     0.20602    
 127.00 -36.00      1.0256    
 127.00 -35.00      1.8765    
 127.00 -34.00      2.7252    
 127.00 -33.00      3.5376    
 127.00 -32.00      4.2812    
 127.00 -31.00      4.9282    
 127.00 -30.00      5.4574    
 127.00 -29.00      5.8561    
 127.00 -28.00      6.1203    
 127.00 -27.00      6.2551    
 127.00 -26.00      6.2736    
 127.00 -25.00      6.1951    
 127.00 -24.00      6.0432    
 127.00 -23.00      5.8432    
 127.00 -22.00      5.6190    
 127.00 -21.00      5.3915    
 127.00 -20.00      5.1761    
 127.00 -19.00      4.9816    
 127.00 -18.00      4.8096    
 127.00 -17.00      4.6552    
 127.00 -16.00      4.5073    
 127.00 -15.00      4.3509    
 127.00 -14.00      4.1691    
 127.00 -13.00      3.9453    
 127.00 -12.00      3.6656    
 127.00 -11.00      3.3206    
 127.00 -10.00      2.9071    
 127.00  -9.00      2.4290    
 127.00  -8.00      1.8967    
 127.00  -7.00      1.3274    
 127.00  -6.00     0.74301    
 127.00  -5.00     0.16843    
 127.00  -4.00    -0.37047    
 127.00  -3.00    -0.84927    
 127.00  -2.00     -1.2472    
 127.00  -1.00     -1.5487    
 127.00   0.00     -1.7453    
 127.00   1.00     -1.8353    
 127.00   2.00     -1.8248    
 127.00   3.00     -1.7260    
 127.00   4.00     -1.5567    
 127.00   5.00     -1.3384    
 127.00   6.00     -1.0939    
 127.00   7.00    -0.84619    
 127.00   8.00    -0.61603    
 127.00   9.00    -0.42077    
 127.00  10.00    -0.27330    
 127.00  11.00    -0.18154    
 127.00  12.00    -0.14847    
 127.00  13.00    -0.17263    
 127.00  14.00    -0.24900    
 127.00  15.00    -0.37006    
 127.00  16.00    -0.52701    
 127.00  17.00    -0.71087    
 127.00  18.00    -0.91344    
 127.00  19.00     -1.1279    
 127.00  20.00     -1.3493    
 127.00  21.00     -1.5741    
 127.00  22.00     -1.8005    
 127.00  23.00     -2.0273    
 127.00  24.00     -2.2536    
 127.00  25.00     -2.4779    
 127.00  26.00     -2.6980    
 127.00  27.00     -2.9103    
 127.00  28.00     -3.1097    
 127.00  29.00     -3.2901    
 127.00  30.00     -3.4449    
 127.00  31.00     -3.5672    
 127.00  32.00     -3.6512    
 127.00  33.00     -3.6926    
 127.00  34.00     -3.6893    
 127.00  35.00     -3.6420    
 127.00  36.00     -3.5541    
 127.00  37.00     -3.4315    
 127.00  38.00     -3.2822    
 127.00  39.00     -3.1154    
 127.00  40.00     -2.9404    
 127.00  41.00     -2.7656    
 127.00  42.00     -2.5971    
 127.00  43.00     -2.4385    
 127.00  44.00     -2.2896    
 127.00  45.00     -2.1466    
 127.00  46.00     -2.0025    
 127.00  47.00     -1.8474    
 127.00  48.00     -1.6699    
 127.00  49.00     -1.4583    
 127.00  50.00     -1.2021    
 127.00  51.00    -0.89347    
 127.00  52.00    -0.52842    
 127.00  53.00    -0.10790    
 127.00  54.00     0.36181    
 127.00  55.00     0.86930    
 127.00  56.00      1.3982    
 127.00  57.00      1.9288    
 127.00  58.00      2.4385    
 127.00  59.00      2.9053    
 127.00  60.00      3.3080    
 127.00  61.00      3.6280    
 127.00  62.00      3.8518    
 127.00  63.00      3.9713    
 127.00  64.00      3.9841    
 127.00  65.00      3.8955    
 127.00  66.00      3.7148    
 127.00  67.00      3.4566    
 127.00  68.00      3.1389    
 127.00  69.00      2.7796    
 127.00  70.00      2.3991    
 127.00  71.00      2.0155    
 127.00  72.00      1.6425    
 127.00  73.00      1.2922    
 127.00  74.00     0.97138    
 127.00  75.00     0.68203    
 127.00  76.00     0.42243    
 127.00  77.00     0.19175    
 127.00  78.00    -0.15622E-01
 127.00  79.00    -0.20576    
 127.00  80.00    -0.37768    
 127.00  81.00    -0.53006    
 127.00  82.00    -0.67838    
 127.00  83.00    -0.80202    
 127.00  84.00    -0.90033    
 127.00  85.00    -0.95376    
 127.00  86.00    -0.96447    
 127.00  87.00    -0.91552    
 127.00  88.00    -0.80360    
 127.00  89.00    -0.61370    
 128.00 -89.00      1.6842    
 128.00 -88.00      1.8482    
 128.00 -87.00      2.0151    
 128.00 -86.00      2.1705    
 128.00 -85.00      2.3266    
 128.00 -84.00      2.4723    
 128.00 -83.00      2.6120    
 128.00 -82.00      2.7600    
 128.00 -81.00      2.9145    
 128.00 -80.00      3.0854    
 128.00 -79.00      3.2717    
 128.00 -78.00      3.4785    
 128.00 -77.00      3.6987    
 128.00 -76.00      3.9236    
 128.00 -75.00      4.1405    
 128.00 -74.00      4.3319    
 128.00 -73.00      4.4836    
 128.00 -72.00      4.5718    
 128.00 -71.00      4.5793    
 128.00 -70.00      4.4927    
 128.00 -69.00      4.3008    
 128.00 -68.00      3.9996    
 128.00 -67.00      3.5918    
 128.00 -66.00      3.0870    
 128.00 -65.00      2.5019    
 128.00 -64.00      1.8573    
 128.00 -63.00      1.1793    
 128.00 -62.00     0.49466    
 128.00 -61.00    -0.16929    
 128.00 -60.00    -0.78885    
 128.00 -59.00     -1.3444    
 128.00 -58.00     -1.8224    
 128.00 -57.00     -2.2156    
 128.00 -56.00     -2.5244    
 128.00 -55.00     -2.7542    
 128.00 -54.00     -2.9164    
 128.00 -53.00     -3.0254    
 128.00 -52.00     -3.0965    
 128.00 -51.00     -3.1438    
 128.00 -50.00     -3.1788    
 128.00 -49.00     -3.2079    
 128.00 -48.00     -3.2322    
 128.00 -47.00     -3.2464    
 128.00 -46.00     -3.2399    
 128.00 -45.00     -3.1974    
 128.00 -44.00     -3.1009    
 128.00 -43.00     -2.9320    
 128.00 -42.00     -2.6737    
 128.00 -41.00     -2.3135    
 128.00 -40.00     -1.8445    
 128.00 -39.00     -1.2675    
 128.00 -38.00    -0.59138    
 128.00 -37.00     0.16679    
 128.00 -36.00     0.98290    
 128.00 -35.00      1.8273    
 128.00 -34.00      2.6670    
 128.00 -33.00      3.4684    
 128.00 -32.00      4.2001    
 128.00 -31.00      4.8349    
 128.00 -30.00      5.3529    
 128.00 -29.00      5.7421    
 128.00 -28.00      5.9995    
 128.00 -27.00      6.1310    
 128.00 -26.00      6.1503    
 128.00 -25.00      6.0773    
 128.00 -24.00      5.9357    
 128.00 -23.00      5.7507    
 128.00 -22.00      5.5460    
 128.00 -21.00      5.3420    
 128.00 -20.00      5.1531    
 128.00 -19.00      4.9875    
 128.00 -18.00      4.8455    
 128.00 -17.00      4.7212    
 128.00 -16.00      4.6023    
 128.00 -15.00      4.4730    
 128.00 -14.00      4.3152    
 128.00 -13.00      4.1117    
 128.00 -12.00      3.8481    
 128.00 -11.00      3.5146    
 128.00 -10.00      3.1079    
 128.00  -9.00      2.6320    
 128.00  -8.00      2.0978    
 128.00  -7.00      1.5229    
 128.00  -6.00     0.92971    
 128.00  -5.00     0.34409    
 128.00  -4.00    -0.20738    
 128.00  -3.00    -0.69952    
 128.00  -2.00     -1.1108    
 128.00  -1.00     -1.4251    
 128.00   0.00     -1.6332    
 128.00   1.00     -1.7333    
 128.00   2.00     -1.7310    
 128.00   3.00     -1.6387    
 128.00   4.00     -1.4741    
 128.00   5.00     -1.2588    
 128.00   6.00     -1.0164    
 128.00   7.00    -0.76998    
 128.00   8.00    -0.54102    
 128.00   9.00    -0.34738    
 128.00  10.00    -0.20250    
 128.00  11.00    -0.11477    
 128.00  12.00    -0.87557E-01
 128.00  13.00    -0.11965    
 128.00  14.00    -0.20610    
 128.00  15.00    -0.33931    
 128.00  16.00    -0.51023    
 128.00  17.00    -0.70947    
 128.00  18.00    -0.92829    
 128.00  19.00     -1.1593    
 128.00  20.00     -1.3966    
 128.00  21.00     -1.6364    
 128.00  22.00     -1.8761    
 128.00  23.00     -2.1140    
 128.00  24.00     -2.3489    
 128.00  25.00     -2.5793    
 128.00  26.00     -2.8031    
 128.00  27.00     -3.0169    
 128.00  28.00     -3.2162    
 128.00  29.00     -3.3955    
 128.00  30.00     -3.5490    
 128.00  31.00     -3.6705    
 128.00  32.00     -3.7551    
 128.00  33.00     -3.7991    
 128.00  34.00     -3.8008    
 128.00  35.00     -3.7612    
 128.00  36.00     -3.6838    
 128.00  37.00     -3.5743    
 128.00  38.00     -3.4402    
 128.00  39.00     -3.2903    
 128.00  40.00     -3.1329    
 128.00  41.00     -2.9757    
 128.00  42.00     -2.8241    
 128.00  43.00     -2.6807    
 128.00  44.00     -2.5449    
 128.00  45.00     -2.4123    
 128.00  46.00     -2.2757    
 128.00  47.00     -2.1251    
 128.00  48.00     -1.9493    
 128.00  49.00     -1.7369    
 128.00  50.00     -1.4778    
 128.00  51.00     -1.1647    
 128.00  52.00    -0.79409    
 128.00  53.00    -0.36742    
 128.00  54.00     0.10866    
 128.00  55.00     0.62252    
 128.00  56.00      1.1576    
 128.00  57.00      1.6943    
 128.00  58.00      2.2101    
 128.00  59.00      2.6833    
 128.00  60.00      3.0928    
 128.00  61.00      3.4202    
 128.00  62.00      3.6523    
 128.00  63.00      3.7810    
 128.00  64.00      3.8038    
 128.00  65.00      3.7260    
 128.00  66.00      3.5565    
 128.00  67.00      3.3098    
 128.00  68.00      3.0031    
 128.00  69.00      2.6543    
 128.00  70.00      2.2832    
 128.00  71.00      1.9078    
 128.00  72.00      1.5417    
 128.00  73.00      1.1970    
 128.00  74.00     0.88073    
 128.00  75.00     0.59465    
 128.00  76.00     0.33812    
 128.00  77.00     0.11067    
 128.00  78.00    -0.93164E-01
 128.00  79.00    -0.27889    
 128.00  80.00    -0.44538    
 128.00  81.00    -0.59110    
 128.00  82.00    -0.73174    
 128.00  83.00    -0.84738    
 128.00  84.00    -0.93719    
 128.00  85.00    -0.98073    
 128.00  86.00    -0.98305    
 128.00  87.00    -0.92751    
 128.00  88.00    -0.80915    
 128.00  89.00    -0.61549    
 129.00 -89.00      1.6770    
 129.00 -88.00      1.8345    
 129.00 -87.00      1.9963    
 129.00 -86.00      2.1473    
 129.00 -85.00      2.3002    
 129.00 -84.00      2.4449    
 129.00 -83.00      2.5836    
 129.00 -82.00      2.7345    
 129.00 -81.00      2.8932    
 129.00 -80.00      3.0697    
 129.00 -79.00      3.2636    
 129.00 -78.00      3.4793    
 129.00 -77.00      3.7094    
 129.00 -76.00      3.9447    
 129.00 -75.00      4.1719    
 129.00 -74.00      4.3730    
 129.00 -73.00      4.5332    
 129.00 -72.00      4.6276    
 129.00 -71.00      4.6383    
 129.00 -70.00      4.5517    
 129.00 -69.00      4.3559    
 129.00 -68.00      4.0467    
 129.00 -67.00      3.6269    
 129.00 -66.00      3.1061    
 129.00 -65.00      2.5013    
 129.00 -64.00      1.8341    
 129.00 -63.00      1.1315    
 129.00 -62.00     0.42081    
 129.00 -61.00    -0.26933    
 129.00 -60.00    -0.91438    
 129.00 -59.00     -1.4938    
 129.00 -58.00     -1.9929    
 129.00 -57.00     -2.4039    
 129.00 -56.00     -2.7263    
 129.00 -55.00     -2.9651    
 129.00 -54.00     -3.1316    
 129.00 -53.00     -3.2401    
 129.00 -52.00     -3.3057    
 129.00 -51.00     -3.3434    
 129.00 -50.00     -3.3647    
 129.00 -49.00     -3.3770    
 129.00 -48.00     -3.3819    
 129.00 -47.00     -3.3751    
 129.00 -46.00     -3.3468    
 129.00 -45.00     -3.2826    
 129.00 -44.00     -3.1655    
 129.00 -43.00     -2.9776    
 129.00 -42.00     -2.7031    
 129.00 -41.00     -2.3297    
 129.00 -40.00     -1.8512    
 129.00 -39.00     -1.2687    
 129.00 -38.00    -0.59111    
 129.00 -37.00     0.16461    
 129.00 -36.00     0.97462    
 129.00 -35.00      1.8097    
 129.00 -34.00      2.6377    
 129.00 -33.00      3.4257    
 129.00 -32.00      4.1432    
 129.00 -31.00      4.7641    
 129.00 -30.00      5.2694    
 129.00 -29.00      5.6480    
 129.00 -28.00      5.8979    
 129.00 -27.00      6.0256    
 129.00 -26.00      6.0453    
 129.00 -25.00      5.9773    
 129.00 -24.00      5.8454    
 129.00 -23.00      5.6744    
 129.00 -22.00      5.4879    
 129.00 -21.00      5.3054    
 129.00 -20.00      5.1409    
 129.00 -19.00      5.0013    
 129.00 -18.00      4.8865    
 129.00 -17.00      4.7892    
 129.00 -16.00      4.6964    
 129.00 -15.00      4.5914    
 129.00 -14.00      4.4556    
 129.00 -13.00      4.2709    
 129.00 -12.00      4.0226    
 129.00 -11.00      3.7008    
 129.00 -10.00      3.3020    
 129.00  -9.00      2.8301    
 129.00  -8.00      2.2964    
 129.00  -7.00      1.7185    
 129.00  -6.00      1.1194    
 129.00  -5.00     0.52516    
 129.00  -4.00    -0.37173E-01
 129.00  -3.00    -0.54198    
 129.00  -2.00    -0.96729    
 129.00  -1.00     -1.2966    
 129.00   0.00     -1.5204    
 129.00   1.00     -1.6364    
 129.00   2.00     -1.6499    
 129.00   3.00     -1.5732    
 129.00   4.00     -1.4239    
 129.00   5.00     -1.2233    
 129.00   6.00    -0.99493    
 129.00   7.00    -0.76201    
 129.00   8.00    -0.54593    
 129.00   9.00    -0.36465    
 129.00  10.00    -0.23169    
 129.00  11.00    -0.15552    
 129.00  12.00    -0.13954    
 129.00  13.00    -0.18257    
 129.00  14.00    -0.27962    
 129.00  15.00    -0.42298    
 129.00  16.00    -0.60343    
 129.00  17.00    -0.81133    
 129.00  18.00     -1.0376    
 129.00  19.00     -1.2746    
 129.00  20.00     -1.5162    
 129.00  21.00     -1.7581    
 129.00  22.00     -1.9976    
 129.00  23.00     -2.2329    
 129.00  24.00     -2.4628    
 129.00  25.00     -2.6861    
 129.00  26.00     -2.9010    
 129.00  27.00     -3.1046    
 129.00  28.00     -3.2932    
 129.00  29.00     -3.4621    
 129.00  30.00     -3.6063    
 129.00  31.00     -3.7205    
 129.00  32.00     -3.8005    
 129.00  33.00     -3.8432    
 129.00  34.00     -3.8477    
 129.00  35.00     -3.8149    
 129.00  36.00     -3.7484    
 129.00  37.00     -3.6536    
 129.00  38.00     -3.5376    
 129.00  39.00     -3.4082    
 129.00  40.00     -3.2732    
 129.00  41.00     -3.1391    
 129.00  42.00     -3.0102    
 129.00  43.00     -2.8884    
 129.00  44.00     -2.7721    
 129.00  45.00     -2.6564    
 129.00  46.00     -2.5336    
 129.00  47.00     -2.3935    
 129.00  48.00     -2.2248    
 129.00  49.00     -2.0164    
 129.00  50.00     -1.7586    
 129.00  51.00     -1.4444    
 129.00  52.00     -1.0709    
 129.00  53.00    -0.64001    
 129.00  54.00    -0.15880    
 129.00  55.00     0.36083    
 129.00  56.00     0.90213    
 129.00  57.00      1.4453    
 129.00  58.00      1.9681    
 129.00  59.00      2.4487    
 129.00  60.00      2.8662    
 129.00  61.00      3.2024    
 129.00  62.00      3.4443    
 129.00  63.00      3.5836    
 129.00  64.00      3.6178    
 129.00  65.00      3.5521    
 129.00  66.00      3.3950    
 129.00  67.00      3.1607    
 129.00  68.00      2.8660    
 129.00  69.00      2.5285    
