 107.00  43.00      1.3186    
 107.00  44.00      1.2786    
 107.00  45.00      1.2553    
 107.00  46.00      1.2424    
 107.00  47.00      1.2336    
 107.00  48.00      1.2264    
 107.00  49.00      1.2249    
 107.00  50.00      1.2365    
 107.00  51.00      1.2674    
 107.00  52.00      1.3170    
 107.00  53.00      1.3746    
 107.00  54.00      1.4215    
 107.00  55.00      1.4370    
 107.00  56.00      1.4073    
 107.00  57.00      1.3321    
 107.00  58.00      1.2271    
 107.00  59.00      1.1196    
 107.00  60.00      1.0397    
 107.00  61.00      1.0088    
 107.00  62.00      1.0300    
 107.00  63.00      1.0867    
 107.00  64.00      1.1452    
 107.00  65.00      1.1662    
 107.00  66.00      1.1171    
 107.00  67.00     0.98283    
 107.00  68.00     0.77158    
 107.00  69.00     0.51101    
 107.00  70.00     0.24134    
 107.00  71.00     0.56273E-02
 107.00  72.00    -0.16325    
 107.00  73.00    -0.24649    
 107.00  74.00    -0.24145    
 107.00  75.00    -0.15888    
 107.00  76.00    -0.17034E-01
 107.00  77.00     0.16104    
 107.00  78.00     0.35363    
 107.00  79.00     0.54028    
 107.00  80.00     0.70205    
 107.00  81.00     0.82351    
 107.00  82.00     0.89436    
 107.00  83.00     0.90950    
 107.00  84.00     0.87700    
 107.00  85.00     0.81470    
 107.00  86.00     0.74539    
 107.00  87.00     0.69670    
 107.00  88.00     0.69318    
 107.00  89.00     0.74372    
 108.00 -89.00      1.0465    
 108.00 -88.00      1.1110    
 108.00 -87.00      1.1714    
 108.00 -86.00      1.2193    
 108.00 -85.00      1.2494    
 108.00 -84.00      1.2593    
 108.00 -83.00      1.2549    
 108.00 -82.00      1.2439    
 108.00 -81.00      1.2405    
 108.00 -80.00      1.2583    
 108.00 -79.00      1.3048    
 108.00 -78.00      1.3793    
 108.00 -77.00      1.4716    
 108.00 -76.00      1.5639    
 108.00 -75.00      1.6350    
 108.00 -74.00      1.6663    
 108.00 -73.00      1.6474    
 108.00 -72.00      1.5770    
 108.00 -71.00      1.4634    
 108.00 -70.00      1.3204    
 108.00 -69.00      1.1648    
 108.00 -68.00      1.0091    
 108.00 -67.00     0.86131    
 108.00 -66.00     0.72434    
 108.00 -65.00     0.59798    
 108.00 -64.00     0.48158    
 108.00 -63.00     0.37673    
 108.00 -62.00     0.28769    
 108.00 -61.00     0.21889    
 108.00 -60.00     0.17368    
 108.00 -59.00     0.15138    
 108.00 -58.00     0.14714    
 108.00 -57.00     0.15335    
 108.00 -56.00     0.16322    
 108.00 -55.00     0.17356    
 108.00 -54.00     0.18706    
 108.00 -53.00     0.21095    
 108.00 -52.00     0.25354    
 108.00 -51.00     0.31931    
 108.00 -50.00     0.40499    
 108.00 -49.00     0.49853    
 108.00 -48.00     0.58171    
 108.00 -47.00     0.63583    
 108.00 -46.00     0.64878    
 108.00 -45.00     0.61991    
 108.00 -44.00     0.56103    
 108.00 -43.00     0.49254    
 108.00 -42.00     0.43638    
 108.00 -41.00     0.40788    
 108.00 -40.00     0.41042    
 108.00 -39.00     0.43493    
 108.00 -38.00     0.46420    
 108.00 -37.00     0.48069    
 108.00 -36.00     0.47431    
 108.00 -35.00     0.44670    
 108.00 -34.00     0.41041    
 108.00 -33.00     0.38306    
 108.00 -32.00     0.37922    
 108.00 -31.00     0.40361    
 108.00 -30.00     0.44880    
 108.00 -29.00     0.49860    
 108.00 -28.00     0.53571    
 108.00 -27.00     0.55029    
 108.00 -26.00     0.54535    
 108.00 -25.00     0.53632    
 108.00 -24.00     0.54443    
 108.00 -23.00     0.58664    
 108.00 -22.00     0.66653    
 108.00 -21.00     0.77038    
 108.00 -20.00     0.87076    
 108.00 -19.00     0.93665    
 108.00 -18.00     0.94621    
 108.00 -17.00     0.89669    
 108.00 -16.00     0.80717    
 108.00 -15.00     0.71223    
 108.00 -14.00     0.64884    
 108.00 -13.00     0.64153    
 108.00 -12.00     0.69213    
 108.00 -11.00     0.77854    
 108.00 -10.00     0.86352    
 108.00  -9.00     0.91038    
 108.00  -8.00     0.89902    
 108.00  -7.00     0.83580    
 108.00  -6.00     0.75274    
 108.00  -5.00     0.69567    
 108.00  -4.00     0.70595    
 108.00  -3.00     0.80273    
 108.00  -2.00     0.97308    
 108.00  -1.00      1.1742    
 108.00   0.00      1.3475    
 108.00   1.00      1.4390    
 108.00   2.00      1.4191    
 108.00   3.00      1.2936    
 108.00   4.00      1.1020    
 108.00   5.00     0.90426    
 108.00   6.00     0.76009    
 108.00   7.00     0.70949    
 108.00   8.00     0.76061    
 108.00   9.00     0.88913    
 108.00  10.00      1.0485    
 108.00  11.00      1.1863    
 108.00  12.00      1.2610    
 108.00  13.00      1.2520    
 108.00  14.00      1.1625    
 108.00  15.00      1.0128    
 108.00  16.00     0.83146    
 108.00  17.00     0.64503    
 108.00  18.00     0.47319    
 108.00  19.00     0.32825    
 108.00  20.00     0.21846    
 108.00  21.00     0.15182    
 108.00  22.00     0.13763    
 108.00  23.00     0.18437    
 108.00  24.00     0.29504    
 108.00  25.00     0.46238    
 108.00  26.00     0.66716    
 108.00  27.00     0.88099    
 108.00  28.00      1.0734    
 108.00  29.00      1.2206    
 108.00  30.00      1.3123    
 108.00  31.00      1.3542    
 108.00  32.00      1.3641    
 108.00  33.00      1.3645    
 108.00  34.00      1.3733    
 108.00  35.00      1.3980    
 108.00  36.00      1.4338    
 108.00  37.00      1.4675    
 108.00  38.00      1.4849    
 108.00  39.00      1.4771    
 108.00  40.00      1.4448    
 108.00  41.00      1.3976    
 108.00  42.00      1.3489    
 108.00  43.00      1.3102    
 108.00  44.00      1.2864    
 108.00  45.00      1.2749    
 108.00  46.00      1.2688    
 108.00  47.00      1.2617    
 108.00  48.00      1.2523    
 108.00  49.00      1.2455    
 108.00  50.00      1.2503    
 108.00  51.00      1.2735    
 108.00  52.00      1.3145    
 108.00  53.00      1.3624    
 108.00  54.00      1.3981    
 108.00  55.00      1.4010    
 108.00  56.00      1.3579    
 108.00  57.00      1.2699    
 108.00  58.00      1.1544    
 108.00  59.00      1.0406    
 108.00  60.00     0.96008    
 108.00  61.00     0.93446    
 108.00  62.00     0.96629    
 108.00  63.00      1.0371    
 108.00  64.00      1.1113    
 108.00  65.00      1.1473    
 108.00  66.00      1.1112    
 108.00  67.00     0.98707    
 108.00  68.00     0.78309    
 108.00  69.00     0.52726    
 108.00  70.00     0.26036    
 108.00  71.00     0.25665E-01
 108.00  72.00    -0.14398    
 108.00  73.00    -0.22970    
 108.00  74.00    -0.22893    
 108.00  75.00    -0.15200    
 108.00  76.00    -0.16409E-01
 108.00  77.00     0.15584    
 108.00  78.00     0.34430    
 108.00  79.00     0.52927    
 108.00  80.00     0.69209    
 108.00  81.00     0.81674    
 108.00  82.00     0.89181    
 108.00  83.00     0.91098    
 108.00  84.00     0.88134    
 108.00  85.00     0.82016    
 108.00  86.00     0.75041    
 108.00  87.00     0.70037    
 108.00  88.00     0.69535    
 108.00  89.00     0.74460    
 109.00 -89.00      1.0465    
 109.00 -88.00      1.1113    
 109.00 -87.00      1.1725    
 109.00 -86.00      1.2215    
 109.00 -85.00      1.2529    
 109.00 -84.00      1.2644    
 109.00 -83.00      1.2613    
 109.00 -82.00      1.2514    
 109.00 -81.00      1.2484    
 109.00 -80.00      1.2659    
 109.00 -79.00      1.3115    
 109.00 -78.00      1.3854    
 109.00 -77.00      1.4776    
 109.00 -76.00      1.5710    
 109.00 -75.00      1.6445    
 109.00 -74.00      1.6796    
 109.00 -73.00      1.6657    
 109.00 -72.00      1.6009    
 109.00 -71.00      1.4929    
 109.00 -70.00      1.3551    
 109.00 -69.00      1.2035    
 109.00 -68.00      1.0504    
 109.00 -67.00     0.90328    
 109.00 -66.00     0.76499    
 109.00 -65.00     0.63527    
 109.00 -64.00     0.51365    
 109.00 -63.00     0.40204    
 109.00 -62.00     0.30512    
 109.00 -61.00     0.22782    
 109.00 -60.00     0.17380    
 109.00 -59.00     0.14269    
 109.00 -58.00     0.12970    
 109.00 -57.00     0.12751    
 109.00 -56.00     0.12971    
 109.00 -55.00     0.13394    
 109.00 -54.00     0.14398    
 109.00 -53.00     0.16829    
 109.00 -52.00     0.21594    
 109.00 -51.00     0.29146    
 109.00 -50.00     0.39048    
 109.00 -49.00     0.49866    
 109.00 -48.00     0.59482    
 109.00 -47.00     0.65731    
 109.00 -46.00     0.67202    
 109.00 -45.00     0.63804    
 109.00 -44.00     0.56882    
 109.00 -43.00     0.48810    
 109.00 -42.00     0.42184    
 109.00 -41.00     0.38897    
 109.00 -40.00     0.39489    
 109.00 -39.00     0.43033    
 109.00 -38.00     0.47571    
 109.00 -37.00     0.50982    
 109.00 -36.00     0.51871    
 109.00 -35.00     0.50135    
 109.00 -34.00     0.46954    
 109.00 -33.00     0.44222    
 109.00 -32.00     0.43667    
 109.00 -31.00     0.46065    
 109.00 -30.00     0.50881    
 109.00 -29.00     0.56527    
 109.00 -28.00     0.61116    
 109.00 -27.00     0.63377    
 109.00 -26.00     0.63303    
 109.00 -25.00     0.62218    
 109.00 -24.00     0.62199    
 109.00 -23.00     0.65081    
 109.00 -22.00     0.71490    
 109.00 -21.00     0.80349    
 109.00 -20.00     0.89138    
 109.00 -19.00     0.94830    
 109.00 -18.00     0.95165    
 109.00 -17.00     0.89692    
 109.00 -16.00     0.80141    
 109.00 -15.00     0.69874    
 109.00 -14.00     0.62640    
 109.00 -13.00     0.61082    
 109.00 -12.00     0.65649    
 109.00 -11.00     0.74374    
 109.00 -10.00     0.83661    
 109.00  -9.00     0.89786    
 109.00  -8.00     0.90505    
 109.00  -7.00     0.86102    
 109.00  -6.00     0.79395    
 109.00  -5.00     0.74660    
 109.00  -4.00     0.75871    
 109.00  -3.00     0.84951    
 109.00  -2.00      1.0076    
 109.00  -1.00      1.1925    
 109.00   0.00      1.3480    
 109.00   1.00      1.4223    
 109.00   2.00      1.3869    
 109.00   3.00      1.2481    
 109.00   4.00      1.0456    
 109.00   5.00     0.83926    
 109.00   6.00     0.68877    
 109.00   7.00     0.63407    
 109.00   8.00     0.68302    
 109.00   9.00     0.81058    
 109.00  10.00     0.96893    
 109.00  11.00      1.1040    
 109.00  12.00      1.1725    
 109.00  13.00      1.1528    
 109.00  14.00      1.0476    
 109.00  15.00     0.87892    
 109.00  16.00     0.67812    
 109.00  17.00     0.47604    
 109.00  18.00     0.29695    
 109.00  19.00     0.15731    
 109.00  20.00     0.68018E-01
 109.00  21.00     0.37565E-01
 109.00  22.00     0.73199E-01
 109.00  23.00     0.17903    
 109.00  24.00     0.35196    
 109.00  25.00     0.57792    
 109.00  26.00     0.83122    
 109.00  27.00      1.0783    
 109.00  28.00      1.2856    
 109.00  29.00      1.4285    
 109.00  30.00      1.4984    
 109.00  31.00      1.5044    
 109.00  32.00      1.4690    
 109.00  33.00      1.4202    
 109.00  34.00      1.3813    
 109.00  35.00      1.3648    
 109.00  36.00      1.3694    
 109.00  37.00      1.3848    
 109.00  38.00      1.3973    
 109.00  39.00      1.3976    
 109.00  40.00      1.3839    
 109.00  41.00      1.3622    
 109.00  42.00      1.3417    
 109.00  43.00      1.3296    
 109.00  44.00      1.3270    
 109.00  45.00      1.3290    
 109.00  46.00      1.3276    
 109.00  47.00      1.3172    
 109.00  48.00      1.2984    
 109.00  49.00      1.2785    
 109.00  50.00      1.2687    
 109.00  51.00      1.2774    
 109.00  52.00      1.3047    
 109.00  53.00      1.3397    
 109.00  54.00      1.3627    
 109.00  55.00      1.3529    
 109.00  56.00      1.2971    
 109.00  57.00      1.1974    
 109.00  58.00      1.0726    
 109.00  59.00     0.95344    
 109.00  60.00     0.87273    
 109.00  61.00     0.85233    
 109.00  62.00     0.89422    
 109.00  63.00     0.97850    
 109.00  64.00      1.0676    
 109.00  65.00      1.1185    
 109.00  66.00      1.0958    
 109.00  67.00     0.98304    
 109.00  68.00     0.78827    
 109.00  69.00     0.53967    
 109.00  70.00     0.27822    
 109.00  71.00     0.46971E-01
 109.00  72.00    -0.12156    
 109.00  73.00    -0.20870    
 109.00  74.00    -0.21204    
 109.00  75.00    -0.14140    
 109.00  76.00    -0.13284E-01
 109.00  77.00     0.15168    
 109.00  78.00     0.33463    
 109.00  79.00     0.51684    
 109.00  80.00     0.68007    
 109.00  81.00     0.80770    
 109.00  82.00     0.88716    
 109.00  83.00     0.91079    
 109.00  84.00     0.88453    
 109.00  85.00     0.82489    
 109.00  86.00     0.75507    
 109.00  87.00     0.70393    
 109.00  88.00     0.69750    
 109.00  89.00     0.74549    
 110.00 -89.00      1.0465    
 110.00 -88.00      1.1116    
 110.00 -87.00      1.1734    
 110.00 -86.00      1.2235    
 110.00 -85.00      1.2562    
 110.00 -84.00      1.2691    
 110.00 -83.00      1.2673    
 110.00 -82.00      1.2586    
 110.00 -81.00      1.2561    
 110.00 -80.00      1.2735    
 110.00 -79.00      1.3184    
 110.00 -78.00      1.3918    
 110.00 -77.00      1.4839    
 110.00 -76.00      1.5784    
 110.00 -75.00      1.6543    
 110.00 -74.00      1.6932    
 110.00 -73.00      1.6843    
 110.00 -72.00      1.6252    
 110.00 -71.00      1.5234    
 110.00 -70.00      1.3915    
 110.00 -69.00      1.2452    
 110.00 -68.00      1.0963    
 110.00 -67.00     0.95163    
 110.00 -66.00     0.81381    
 110.00 -65.00     0.68224    
 110.00 -64.00     0.55645    
 110.00 -63.00     0.43842    
 110.00 -62.00     0.33319    
 110.00 -61.00     0.24629    
 110.00 -60.00     0.18189    
 110.00 -59.00     0.14021    
 110.00 -58.00     0.11678    
 110.00 -57.00     0.10481    
 110.00 -56.00     0.98251E-01
 110.00 -55.00     0.95511E-01
 110.00 -54.00     0.10119    
 110.00 -53.00     0.12470    
 110.00 -52.00     0.17569    
 110.00 -51.00     0.25878    
 110.00 -50.00     0.36867    
 110.00 -49.00     0.48914    
 110.00 -48.00     0.59649    
 110.00 -47.00     0.66647    
 110.00 -46.00     0.68301    
 110.00 -45.00     0.64472    
 110.00 -44.00     0.56621    
 110.00 -43.00     0.47394    
 110.00 -42.00     0.39740    
 110.00 -41.00     0.35893    
 110.00 -40.00     0.36614    
 110.00 -39.00     0.41008    
 110.00 -38.00     0.46956    
 110.00 -37.00     0.52030    
 110.00 -36.00     0.54488    
 110.00 -35.00     0.53946    
 110.00 -34.00     0.51455    
 110.00 -33.00     0.48961    
 110.00 -32.00     0.48391    
 110.00 -31.00     0.50773    
 110.00 -30.00     0.55781    
 110.00 -29.00     0.61905    
 110.00 -28.00     0.67179    
 110.00 -27.00     0.70121    
 110.00 -26.00     0.70474    
 110.00 -25.00     0.69363    
 110.00 -24.00     0.68798    
 110.00 -23.00     0.70709    
 110.00 -22.00     0.75947    
 110.00 -21.00     0.83710    
 110.00 -20.00     0.91699    
 110.00 -19.00     0.96989    
 110.00 -18.00     0.97261    
 110.00 -17.00     0.91886    
 110.00 -16.00     0.82366    
 110.00 -15.00     0.71896    
 110.00 -14.00     0.64183    
 110.00 -13.00     0.61994    
 110.00 -12.00     0.66035    
 110.00 -11.00     0.74646    
 110.00 -10.00     0.84483    
 110.00  -9.00     0.91923    
 110.00  -8.00     0.94622    
 110.00  -7.00     0.92565    
 110.00  -6.00     0.88145    
 110.00  -5.00     0.85185    
 110.00  -4.00     0.87291    
 110.00  -3.00     0.96187    
 110.00  -2.00      1.1074    
 110.00  -1.00      1.2711    
 110.00   0.00      1.4002    
 110.00   1.00      1.4467    
 110.00   2.00      1.3856    
 110.00   3.00      1.2258    
 110.00   4.00      1.0082    
 110.00   5.00     0.79241    
 110.00   6.00     0.63704    
 110.00   7.00     0.58023    
 110.00   8.00     0.62798    
 110.00   9.00     0.75360    
 110.00  10.00     0.90810    
 110.00  11.00      1.0369    
 110.00  12.00      1.0968    
 110.00  13.00      1.0670    
 110.00  14.00     0.95168    
 110.00  15.00     0.77477    
 110.00  16.00     0.56984    
 110.00  17.00     0.37010    
 110.00  18.00     0.20187    
 110.00  19.00     0.82933E-01
 110.00  20.00     0.24431E-01
 110.00  21.00     0.33732E-01
 110.00  22.00     0.11554    
 110.00  23.00     0.27021    
 110.00  24.00     0.49009    
 110.00  25.00     0.75641    
 110.00  26.00      1.0392    
 110.00  27.00      1.3019    
 110.00  28.00      1.5092    
 110.00  29.00      1.6366    
 110.00  30.00      1.6772    
 110.00  31.00      1.6430    
 110.00  32.00      1.5607    
 110.00  33.00      1.4630    
 110.00  34.00      1.3780    
 110.00  35.00      1.3224    
 110.00  36.00      1.2991    
 110.00  37.00      1.3000    
 110.00  38.00      1.3125    
 110.00  39.00      1.3265    
 110.00  40.00      1.3376    
 110.00  41.00      1.3478    
 110.00  42.00      1.3610    
 110.00  43.00      1.3793    
 110.00  44.00      1.3997    
 110.00  45.00      1.4143    
 110.00  46.00      1.4145    
 110.00  47.00      1.3958    
 110.00  48.00      1.3613    
 110.00  49.00      1.3220    
 110.00  50.00      1.2917    
 110.00  51.00      1.2813    
 110.00  52.00      1.2918    
 110.00  53.00      1.3122    
 110.00  54.00      1.3221    
 110.00  55.00      1.2999    
 110.00  56.00      1.2322    
 110.00  57.00      1.1216    
 110.00  58.00     0.98795    
 110.00  59.00     0.86350    
 110.00  60.00     0.78196    
 110.00  61.00     0.76566    
 110.00  62.00     0.81619    
 110.00  63.00     0.91237    
 110.00  64.00      1.0152    
 110.00  65.00      1.0802    
 110.00  66.00      1.0710    
 110.00  67.00     0.97060    
 110.00  68.00     0.78686    
 110.00  69.00     0.54788    
 110.00  70.00     0.29452    
 110.00  71.00     0.69150E-01
 110.00  72.00    -0.96353E-01
 110.00  73.00    -0.18383    
 110.00  74.00    -0.19109    
 110.00  75.00    -0.12731    
 110.00  76.00    -0.78120E-02
 110.00  77.00     0.14849    
 110.00  78.00     0.32458    
 110.00  79.00     0.50299    
 110.00  80.00     0.66599    
 110.00  81.00     0.79641    
 110.00  82.00     0.88043    
 110.00  83.00     0.90893    
 110.00  84.00     0.88656    
 110.00  85.00     0.82889    
 110.00  86.00     0.75937    
 110.00  87.00     0.70737    
 110.00  88.00     0.69963    
 110.00  89.00     0.74641    
 111.00 -89.00      1.0464    
 111.00 -88.00      1.1118    
 111.00 -87.00      1.1742    
 111.00 -86.00      1.2252    
 111.00 -85.00      1.2592    
 111.00 -84.00      1.2735    
 111.00 -83.00      1.2730    
 111.00 -82.00      1.2655    
 111.00 -81.00      1.2637    
 111.00 -80.00      1.2811    
 111.00 -79.00      1.3255    
 111.00 -78.00      1.3984    
 111.00 -77.00      1.4906    
 111.00 -76.00      1.5861    
 111.00 -75.00      1.6644    
 111.00 -74.00      1.7068    
 111.00 -73.00      1.7028    
 111.00 -72.00      1.6497    
 111.00 -71.00      1.5543    
 111.00 -70.00      1.4292    
 111.00 -69.00      1.2893    
 111.00 -68.00      1.1460    
 111.00 -67.00      1.0055    
 111.00 -66.00     0.86992    
 111.00 -65.00     0.73807    
 111.00 -64.00     0.60930    
 111.00 -63.00     0.48545    
 111.00 -62.00     0.37183    
 111.00 -61.00     0.27463    
 111.00 -60.00     0.19872    
 111.00 -59.00     0.14515    
 111.00 -58.00     0.11006    
 111.00 -57.00     0.87343E-01
 111.00 -56.00     0.71377E-01
 111.00 -55.00     0.61204E-01
 111.00 -54.00     0.61999E-01
 111.00 -53.00     0.83844E-01
 111.00 -52.00     0.13678    
 111.00 -51.00     0.22549    
 111.00 -50.00     0.34394    
 111.00 -49.00     0.47442    
 111.00 -48.00     0.59108    
 111.00 -47.00     0.66742    
 111.00 -46.00     0.68556    
 111.00 -45.00     0.64338    
 111.00 -44.00     0.55618    
 111.00 -43.00     0.45261    
 111.00 -42.00     0.36523    
 111.00 -41.00     0.31961    
 111.00 -40.00     0.32583    
 111.00 -39.00     0.37578    
 111.00 -38.00     0.44740    
 111.00 -37.00     0.51397    
 111.00 -36.00     0.55486    
 111.00 -35.00     0.56320    
 111.00 -34.00     0.54756    
 111.00 -33.00     0.52702    
 111.00 -32.00     0.52197    
 111.00 -31.00     0.54476    
 111.00 -30.00     0.59424    
 111.00 -29.00     0.65672    
 111.00 -28.00     0.71267    
 111.00 -27.00     0.74621    
 111.00 -26.00     0.75295    
 111.00 -25.00     0.74243    
 111.00 -24.00     0.73387    
 111.00 -23.00     0.74700    
 111.00 -22.00     0.79198    
 111.00 -21.00     0.86312    
 111.00 -20.00     0.93964    
 111.00 -19.00     0.99347    
 111.00 -18.00      1.0011    
 111.00 -17.00     0.95462    
 111.00 -16.00     0.86635    
 111.00 -15.00     0.76575    
 111.00 -14.00     0.68840    
 111.00 -13.00     0.66223    
 111.00 -12.00     0.69629    
 111.00 -11.00     0.77728    
 111.00 -10.00     0.87528    
 111.00  -9.00     0.95666    
 111.00  -8.00     0.99864    
 111.00  -7.00     0.99940    
 111.00  -6.00     0.97902    
 111.00  -5.00     0.97071    
 111.00  -4.00      1.0055    
 111.00  -3.00      1.0969    
 111.00  -2.00      1.2323    
 111.00  -1.00      1.3745    
 111.00   0.00      1.4743    
 111.00   1.00      1.4884    
 111.00   2.00      1.3971    
 111.00   3.00      1.2131    
 111.00   4.00     0.97954    
 111.00   5.00     0.75594    
 111.00   6.00     0.59902    
 111.00   7.00     0.54400    
 111.00   8.00     0.59373    
 111.00   9.00     0.71913    
 111.00  10.00     0.87013    
 111.00  11.00     0.99257    
 111.00  12.00      1.0448    
 111.00  13.00      1.0086    
 111.00  14.00     0.89076    
 111.00  15.00     0.71743    
 111.00  16.00     0.52362    
 111.00  17.00     0.34292    
 111.00  18.00     0.20103    
 111.00  19.00     0.11416    
 111.00  20.00     0.91212E-01
 111.00  21.00     0.13689    
 111.00  22.00     0.25308    
 111.00  23.00     0.43744    
 111.00  24.00     0.68000    
 111.00  25.00     0.96024    
 111.00  26.00      1.2472    
 111.00  27.00      1.5039    
 111.00  28.00      1.6957    
 111.00  29.00      1.7991    
 111.00  30.00      1.8087    
 111.00  31.00      1.7387    
 111.00  32.00      1.6182    
 111.00  33.00      1.4823    
 111.00  34.00      1.3624    
 111.00  35.00      1.2784    
 111.00  36.00      1.2358    
 111.00  37.00      1.2290    
 111.00  38.00      1.2467    
 111.00  39.00      1.2780    
 111.00  40.00      1.3166    
 111.00  41.00      1.3601    
 111.00  42.00      1.4077    
 111.00  43.00      1.4560    
 111.00  44.00      1.4977    
 111.00  45.00      1.5222    
 111.00  46.00      1.5202    
 111.00  47.00      1.4889    
 111.00  48.00      1.4346    
 111.00  49.00      1.3720    
 111.00  50.00      1.3185    
 111.00  51.00      1.2873    
 111.00  52.00      1.2804    
 111.00  53.00      1.2863    
 111.00  54.00      1.2839    
 111.00  55.00      1.2503    
 111.00  56.00      1.1714    
 111.00  57.00      1.0502    
 111.00  58.00     0.90750    
 111.00  59.00     0.77672    
 111.00  60.00     0.69271    
 111.00  61.00     0.67838    
 111.00  62.00     0.73520    
 111.00  63.00     0.84097    
 111.00  64.00     0.95562    
 111.00  65.00      1.0335    
 111.00  66.00      1.0375    
 111.00  67.00     0.95012    
 111.00  68.00     0.77897    
 111.00  69.00     0.55182    
 111.00  70.00     0.30905    
 111.00  71.00     0.91895E-01
 111.00  72.00    -0.68717E-01
 111.00  73.00    -0.15545    
 111.00  74.00    -0.16638    
 111.00  75.00    -0.10997    
 111.00  76.00    -0.17195E-03
 111.00  77.00     0.14615    
 111.00  78.00     0.31413    
 111.00  79.00     0.48773    
 111.00  80.00     0.64989    
 111.00  81.00     0.78290    
 111.00  82.00     0.87164    
 111.00  83.00     0.90541    
 111.00  84.00     0.88744    
 111.00  85.00     0.83214    
 111.00  86.00     0.76328    
 111.00  87.00     0.71067    
 111.00  88.00     0.70174    
 111.00  89.00     0.74734    
 112.00 -89.00      1.0463    
 112.00 -88.00      1.1119    
 112.00 -87.00      1.1748    
 112.00 -86.00      1.2268    
 112.00 -85.00      1.2619    
 112.00 -84.00      1.2776    
 112.00 -83.00      1.2783    
 112.00 -82.00      1.2722    
 112.00 -81.00      1.2711    
 112.00 -80.00      1.2886    
 112.00 -79.00      1.3327    
 112.00 -78.00      1.4053    
 112.00 -77.00      1.4976    
 112.00 -76.00      1.5941    
 112.00 -75.00      1.6746    
 112.00 -74.00      1.7204    
 112.00 -73.00      1.7212    
 112.00 -72.00      1.6740    
 112.00 -71.00      1.5853    
 112.00 -70.00      1.4675    
 112.00 -69.00      1.3349    
 112.00 -68.00      1.1985    
 112.00 -67.00      1.0638    
 112.00 -66.00     0.93216    
 112.00 -65.00     0.80161    
 112.00 -64.00     0.67115    
 112.00 -63.00     0.54230    
 112.00 -62.00     0.42053    
 112.00 -61.00     0.31277    
 112.00 -60.00     0.22472    
 112.00 -59.00     0.15846    
 112.00 -58.00     0.11102    
 112.00 -57.00     0.77097E-01
 112.00 -56.00     0.51558E-01
 112.00 -55.00     0.33953E-01
 112.00 -54.00     0.29802E-01
 112.00 -53.00     0.49561E-01
 112.00 -52.00     0.10350    
 112.00 -51.00     0.19626    
 112.00 -50.00     0.32130    
 112.00 -49.00     0.45970    
 112.00 -48.00     0.58391    
 112.00 -47.00     0.66549    
 112.00 -46.00     0.68483    
 112.00 -45.00     0.63890    
 112.00 -44.00     0.54331    
 112.00 -43.00     0.42839    
 112.00 -42.00     0.32940    
 112.00 -41.00     0.27501    
 112.00 -40.00     0.27801    
 112.00 -39.00     0.33172    
 112.00 -38.00     0.41387    
 112.00 -37.00     0.49587    
 112.00 -36.00     0.55407    
 112.00 -35.00     0.57828    
 112.00 -34.00     0.57439    
 112.00 -33.00     0.56015    
 112.00 -32.00     0.55619    
 112.00 -31.00     0.57646    
 112.00 -30.00     0.62205    
 112.00 -29.00     0.68134    
 112.00 -28.00     0.73596    
 112.00 -27.00     0.77006    
 112.00 -26.00     0.77820    
 112.00 -25.00     0.76843    
 112.00 -24.00     0.75880    
 112.00 -23.00     0.76877    
 112.00 -22.00     0.80944    
 112.00 -21.00     0.87698    
 112.00 -20.00     0.95274    
 112.00 -19.00      1.0102    
 112.00 -18.00      1.0261    
 112.00 -17.00     0.99116    
 112.00 -16.00     0.91505    
 112.00 -15.00     0.82401    
 112.00 -14.00     0.75102    
 112.00 -13.00     0.72288    
 112.00 -12.00     0.74968    
 112.00 -11.00     0.82099    
 112.00 -10.00     0.91098    
 112.00  -9.00     0.98989    
 112.00  -8.00      1.0374    
 112.00  -7.00      1.0518    
 112.00  -6.00      1.0507    
 112.00  -5.00      1.0624    
 112.00  -4.00      1.1127    
 112.00  -3.00      1.2104    
 112.00  -2.00      1.3399    
 112.00  -1.00      1.4645    
 112.00   0.00      1.5377    
 112.00   1.00      1.5215    
 112.00   2.00      1.4016    
 112.00   3.00      1.1957    
 112.00   4.00     0.94934    
 112.00   5.00     0.72231    
 112.00   6.00     0.56904    
 112.00   7.00     0.52099    
 112.00   8.00     0.57713    
 112.00   9.00     0.70550    
 112.00  10.00     0.85501    
 112.00  11.00     0.97266    
 112.00  12.00      1.0197    
 112.00  13.00     0.98145    
 112.00  14.00     0.86839    
 112.00  15.00     0.70902    
 112.00  16.00     0.53893    
 112.00  17.00     0.39031    
 112.00  18.00     0.28573    
 112.00  19.00     0.23721    
 112.00  20.00     0.24914    
 112.00  21.00     0.32218    
 112.00  22.00     0.45531    
 112.00  23.00     0.64483    
 112.00  24.00     0.88099    
 112.00  25.00      1.1449    
 112.00  26.00      1.4083    
 112.00  27.00      1.6373    
 112.00  28.00      1.7999    
 112.00  29.00      1.8750    
 112.00  30.00      1.8585    
 112.00  31.00      1.7650    
 112.00  32.00      1.6237    
 112.00  33.00      1.4695    
 112.00  34.00      1.3342    
 112.00  35.00      1.2384    
 112.00  36.00      1.1895    
 112.00  37.00      1.1836    
 112.00  38.00      1.2107    
 112.00  39.00      1.2603    
 112.00  40.00      1.3245    
 112.00  41.00      1.3982    
 112.00  42.00      1.4760    
 112.00  43.00      1.5500    
 112.00  44.00      1.6086    
 112.00  45.00      1.6390    
 112.00  46.00      1.6315    
 112.00  47.00      1.5851    
 112.00  48.00      1.5094    
 112.00  49.00      1.4231    
 112.00  50.00      1.3469    
 112.00  51.00      1.2965    
 112.00  52.00      1.2743    
 112.00  53.00      1.2682    
 112.00  54.00      1.2556    
 112.00  55.00      1.2121    
 112.00  56.00      1.1230    
 112.00  57.00     0.99108    
 112.00  58.00     0.83818    
 112.00  59.00     0.69917    
 112.00  60.00     0.61014    
 112.00  61.00     0.59475    
 112.00  62.00     0.65467    
 112.00  63.00     0.76702    
 112.00  64.00     0.89095    
 112.00  65.00     0.98002    
 112.00  66.00     0.99641    
 112.00  67.00     0.92237    
 112.00  68.00     0.76505    
 112.00  69.00     0.55167    
 112.00  70.00     0.32175    
 112.00  71.00     0.11498    
 112.00  72.00    -0.38977E-01
 112.00  73.00    -0.12393    
 112.00  74.00    -0.13826    
 112.00  75.00    -0.89682E-01
 112.00  76.00     0.94356E-02
 112.00  77.00     0.14457    
 112.00  78.00     0.30324    
 112.00  79.00     0.47108    
 112.00  80.00     0.63182    
 112.00  81.00     0.76722    
 112.00  82.00     0.86083    
 112.00  83.00     0.90026    
 112.00  84.00     0.88715    
 112.00  85.00     0.83465    
 112.00  86.00     0.76682    
 112.00  87.00     0.71384    
 112.00  88.00     0.70383    
 112.00  89.00     0.74828    
 113.00 -89.00      1.0462    
 113.00 -88.00      1.1119    
 113.00 -87.00      1.1753    
 113.00 -86.00      1.2281    
 113.00 -85.00      1.2643    
 113.00 -84.00      1.2814    
 113.00 -83.00      1.2834    
 113.00 -82.00      1.2786    
 113.00 -81.00      1.2784    
 113.00 -80.00      1.2961    
 113.00 -79.00      1.3400    
 113.00 -78.00      1.4124    
 113.00 -77.00      1.5049    
 113.00 -76.00      1.6023    
 113.00 -75.00      1.6848    
 113.00 -74.00      1.7339    
 113.00 -73.00      1.7393    
 113.00 -72.00      1.6979    
 113.00 -71.00      1.6160    
 113.00 -70.00      1.5059    
 113.00 -69.00      1.3814    
 113.00 -68.00      1.2530    
 113.00 -67.00      1.1254    
 113.00 -66.00     0.99920    
 113.00 -65.00     0.87148    
 113.00 -64.00     0.74062    
 113.00 -63.00     0.60775    
 113.00 -62.00     0.47839    
 113.00 -61.00     0.36024    
 113.00 -60.00     0.25994    
 113.00 -59.00     0.18074    
 113.00 -58.00     0.12080    
 113.00 -57.00     0.75728E-01
 113.00 -56.00     0.40941E-01
 113.00 -55.00     0.16357E-01
 113.00 -54.00     0.76371E-02
 113.00 -53.00     0.25337E-01
 113.00 -52.00     0.79782E-01
 113.00 -51.00     0.17553    
 113.00 -50.00     0.30564    
 113.00 -49.00     0.45030    
 113.00 -48.00     0.58061    
 113.00 -47.00     0.66644    
 113.00 -46.00     0.68664    
 113.00 -45.00     0.63707    
 113.00 -44.00     0.53332    
 113.00 -43.00     0.40697    
 113.00 -42.00     0.29566    
 113.00 -41.00     0.23110    
 113.00 -40.00     0.22901    
 113.00 -39.00     0.28467    
 113.00 -38.00     0.37622    
 113.00 -37.00     0.47370    
 113.00 -36.00     0.55055    
 113.00 -35.00     0.59297    
 113.00 -34.00     0.60343    
 113.00 -33.00     0.59739    
 113.00 -32.00     0.59495    
 113.00 -31.00     0.61120    
 113.00 -30.00     0.64961    
 113.00 -29.00     0.70132    
 113.00 -28.00     0.75016    
 113.00 -27.00     0.78124    
 113.00 -26.00     0.78876    
 113.00 -25.00     0.77939    
 113.00 -24.00     0.76955    
 113.00 -23.00     0.77765    
 113.00 -22.00     0.81490    
 113.00 -21.00     0.87887    
 113.00 -20.00     0.95311    
 113.00 -19.00      1.0132    
 113.00 -18.00      1.0371    
 113.00 -17.00      1.0148    
 113.00 -16.00     0.95371    
 113.00 -15.00     0.87647    
 113.00 -14.00     0.81233    
 113.00 -13.00     0.78550    
 113.00 -12.00     0.80554    
 113.00 -11.00     0.86400    
 113.00 -10.00     0.93893    
 113.00  -9.00      1.0053    
 113.00  -8.00      1.0470    
 113.00  -7.00      1.0641    
 113.00  -6.00      1.0734    
 113.00  -5.00      1.1001    
 113.00  -4.00      1.1647    
 113.00  -3.00      1.2709    
 113.00  -2.00      1.3997    
 113.00  -1.00      1.5132    
 113.00   0.00      1.5671    
 113.00   1.00      1.5277    
 113.00   2.00      1.3862    
 113.00   3.00      1.1648    
 113.00   4.00     0.91221    
 113.00   5.00     0.68808    
 113.00   6.00     0.54442    
 113.00   7.00     0.50863    
 113.00   8.00     0.57539    
 113.00   9.00     0.70969    
 113.00  10.00     0.85963    
 113.00  11.00     0.97388    
 113.00  12.00      1.0174    
 113.00  13.00     0.98015    
 113.00  14.00     0.87675    
 113.00  15.00     0.73815    
 113.00  16.00     0.59983    
 113.00  17.00     0.49116    
 113.00  18.00     0.42962    
 113.00  19.00     0.42085    
 113.00  20.00     0.46286    
 113.00  21.00     0.55119    
 113.00  22.00     0.68193    
 113.00  23.00     0.85127    
 113.00  24.00      1.0522    
 113.00  25.00      1.2707    
 113.00  26.00      1.4848    
 113.00  27.00      1.6670    
 113.00  28.00      1.7905    
 113.00  29.00      1.8376    
 113.00  30.00      1.8050    
 113.00  31.00      1.7061    
 113.00  32.00      1.5673    
 113.00  33.00      1.4200    
 113.00  34.00      1.2932    
 113.00  35.00      1.2058    
 113.00  36.00      1.1652    
 113.00  37.00      1.1686    
 113.00  38.00      1.2077    
 113.00  39.00      1.2734    
 113.00  40.00      1.3578    
 113.00  41.00      1.4541    
 113.00  42.00      1.5542    
 113.00  43.00      1.6465    
 113.00  44.00      1.7161    
 113.00  45.00      1.7481    
 113.00  46.00      1.7329    
 113.00  47.00      1.6712    
 113.00  48.00      1.5757    
 113.00  49.00      1.4688    
 113.00  50.00      1.3743    
 113.00  51.00      1.3093    
 113.00  52.00      1.2766    
 113.00  53.00      1.2629    
 113.00  54.00      1.2435    
 113.00  55.00      1.1923    
 113.00  56.00      1.0938    
 113.00  57.00     0.95073    
 113.00  58.00     0.78610    
 113.00  59.00     0.63633    
 113.00  60.00     0.53903    
 113.00  61.00     0.51891    
 113.00  62.00     0.57814    
 113.00  63.00     0.69349    
 113.00  64.00     0.82367    
 113.00  65.00     0.92172    
 113.00  66.00     0.94933    
 113.00  67.00     0.88850    
 113.00  68.00     0.74586    
 113.00  69.00     0.54784    
 113.00  70.00     0.33272    
 113.00  71.00     0.13829    
 113.00  72.00    -0.74258E-02
 113.00  73.00    -0.89622E-01
 113.00  74.00    -0.10711    
 113.00  75.00    -0.66744E-01
 113.00  76.00     0.20791E-01
 113.00  77.00     0.14361    
 113.00  78.00     0.29189    
 113.00  79.00     0.45307    
 113.00  80.00     0.61184    
 113.00  81.00     0.74945    
 113.00  82.00     0.84806    
 113.00  83.00     0.89349    
 113.00  84.00     0.88570    
 113.00  85.00     0.83641    
 113.00  86.00     0.76997    
 113.00  87.00     0.71686    
 113.00  88.00     0.70589    
 113.00  89.00     0.74924    
 114.00 -89.00      1.0461    
 114.00 -88.00      1.1119    
 114.00 -87.00      1.1756    
 114.00 -86.00      1.2292    
 114.00 -85.00      1.2663    
 114.00 -84.00      1.2848    
 114.00 -83.00      1.2881    
 114.00 -82.00      1.2847    
 114.00 -81.00      1.2854    
 114.00 -80.00      1.3035    
 114.00 -79.00      1.3474    
 114.00 -78.00      1.4197    
 114.00 -77.00      1.5124    
 114.00 -76.00      1.6107    
 114.00 -75.00      1.6950    
 114.00 -74.00      1.7471    
 114.00 -73.00      1.7569    
 114.00 -72.00      1.7211    
 114.00 -71.00      1.6461    
 114.00 -70.00      1.5439    
 114.00 -69.00      1.4281    
 114.00 -68.00      1.3084    
 114.00 -67.00      1.1891    
 114.00 -66.00      1.0696    
 114.00 -65.00     0.94608    
 114.00 -64.00     0.81609    
 114.00 -63.00     0.68028    
 114.00 -62.00     0.54416    
 114.00 -61.00     0.41618    
 114.00 -60.00     0.30397    
 114.00 -59.00     0.21212    
 114.00 -58.00     0.14007    
 114.00 -57.00     0.84376E-01
 114.00 -56.00     0.41077E-01
 114.00 -55.00     0.10335E-01
 114.00 -54.00    -0.22287E-02
 114.00 -53.00     0.13807E-01
 114.00 -52.00     0.68688E-01
 114.00 -51.00     0.16682    
 114.00 -50.00     0.30098    
 114.00 -49.00     0.45073    
 114.00 -48.00     0.58611    
 114.00 -47.00     0.67561    
 114.00 -46.00     0.69658    
 114.00 -45.00     0.64370    
 114.00 -44.00     0.53225    
 114.00 -43.00     0.39468    
 114.00 -42.00     0.27073    
 114.00 -41.00     0.19508    
 114.00 -40.00     0.18657    
 114.00 -39.00     0.24291    
 114.00 -38.00     0.34319    
 114.00 -37.00     0.45647    
 114.00 -36.00     0.55344    
 114.00 -35.00     0.61635    
 114.00 -34.00     0.64365    
 114.00 -33.00     0.64772    
 114.00 -32.00     0.64738    
 114.00 -31.00     0.65854    
 114.00 -30.00     0.68720    
 114.00 -29.00     0.72781    
 114.00 -28.00     0.76726    
 114.00 -27.00     0.79246    
 114.00 -26.00     0.79767    
 114.00 -25.00     0.78811    
 114.00 -24.00     0.77798    
 114.00 -23.00     0.78380    
 114.00 -22.00     0.81609    
 114.00 -21.00     0.87342    
 114.00 -20.00     0.94177    
 114.00 -19.00     0.99971    
 114.00 -18.00      1.0275    
 114.00 -17.00      1.0157    
 114.00 -16.00     0.97022    
 114.00 -15.00     0.90990    
 114.00 -14.00     0.85938    
 114.00 -13.00     0.83870    
 114.00 -12.00     0.85510    
 114.00 -11.00     0.90057    
 114.00 -10.00     0.95630    
 114.00  -9.00      1.0022    
 114.00  -8.00      1.0272    
 114.00  -7.00      1.0354    
 114.00  -6.00      1.0447    
 114.00  -5.00      1.0787    
 114.00  -4.00      1.1538    
 114.00  -3.00      1.2691    
 114.00  -2.00      1.4015    
 114.00  -1.00      1.5113    
 114.00   0.00      1.5551    
 114.00   1.00      1.5023    
 114.00   2.00      1.3489    
 114.00   3.00      1.1212    
 114.00   4.00     0.87024    
 114.00   5.00     0.65574    
 114.00   6.00     0.52710    
 114.00   7.00     0.50758    
 114.00   8.00     0.58755    
 114.00   9.00     0.72907    
 114.00  10.00     0.87965    
 114.00  11.00     0.99011    
 114.00  12.00      1.0297    
 114.00  13.00     0.99349    
 114.00  14.00     0.90076    
 114.00  15.00     0.78495    
 114.00  16.00     0.68103    
 114.00  17.00     0.61464    
 114.00  18.00     0.59688    
 114.00  19.00     0.62556    
 114.00  20.00     0.69098    
 114.00  21.00     0.78270    
 114.00  22.00     0.89392    
 114.00  23.00      1.0217    
 114.00  24.00      1.1635    
 114.00  25.00      1.3132    
 114.00  26.00      1.4580    
 114.00  27.00      1.5794    
 114.00  28.00      1.6582    
 114.00  29.00      1.6810    
 114.00  30.00      1.6451    
 114.00  31.00      1.5609    
 114.00  32.00      1.4491    
 114.00  33.00      1.3349    
 114.00  34.00      1.2408    
 114.00  35.00      1.1816    
 114.00  36.00      1.1627    
 114.00  37.00      1.1820    
 114.00  38.00      1.2332    
 114.00  39.00      1.3098    
 114.00  40.00      1.4056    
 114.00  41.00      1.5142    
 114.00  42.00      1.6264    
 114.00  43.00      1.7281    
 114.00  44.00      1.8023    
 114.00  45.00      1.8326    
 114.00  46.00      1.8092    
 114.00  47.00      1.7345    
 114.00  48.00      1.6240    
 114.00  49.00      1.5028    
 114.00  50.00      1.3972    
 114.00  51.00      1.3253    
 114.00  52.00      1.2890    
 114.00  53.00      1.2734    
 114.00  54.00      1.2516    
 114.00  55.00      1.1955    
 114.00  56.00      1.0886    
 114.00  57.00     0.93395    
 114.00  58.00     0.75580    
 114.00  59.00     0.59245    
 114.00  60.00     0.48332    
 114.00  61.00     0.45450    
 114.00  62.00     0.50891    
 114.00  63.00     0.62339    
 114.00  64.00     0.75646    
 114.00  65.00     0.86090    
 114.00  66.00     0.89816    
 114.00  67.00     0.85000    
 114.00  68.00     0.72244    
 114.00  69.00     0.54095    
 114.00  70.00     0.34221    
 114.00  71.00     0.16175    
 114.00  72.00     0.25674E-01
 114.00  73.00    -0.52911E-01
 114.00  74.00    -0.73299E-01
 114.00  75.00    -0.41491E-01
 114.00  76.00     0.33662E-01
 114.00  77.00     0.14317    
 114.00  78.00     0.28003    
 114.00  79.00     0.43373    
 114.00  80.00     0.59002    
 114.00  81.00     0.72966    
 114.00  82.00     0.83338    
 114.00  83.00     0.88515    
 114.00  84.00     0.88311    
 114.00  85.00     0.83745    
 114.00  86.00     0.77274    
 114.00  87.00     0.71975    
 114.00  88.00     0.70792    
 114.00  89.00     0.75022    
 115.00 -89.00      1.0459    
 115.00 -88.00      1.1118    
 115.00 -87.00      1.1758    
 115.00 -86.00      1.2301    
 115.00 -85.00      1.2681    
 115.00 -84.00      1.2879    
 115.00 -83.00      1.2925    
 115.00 -82.00      1.2904    
 115.00 -81.00      1.2922    
 115.00 -80.00      1.3108    
 115.00 -79.00      1.3549    
 115.00 -78.00      1.4272    
 115.00 -77.00      1.5202    
 115.00 -76.00      1.6191    
 115.00 -75.00      1.7052    
 115.00 -74.00      1.7600    
 115.00 -73.00      1.7738    
 115.00 -72.00      1.7434    
 115.00 -71.00      1.6752    
 115.00 -70.00      1.5810    
 115.00 -69.00      1.4741    
 115.00 -68.00      1.3639    
 115.00 -67.00      1.2536    
 115.00 -66.00      1.1419    
 115.00 -65.00      1.0237    
 115.00 -64.00     0.89575    
 115.00 -63.00     0.75813    
 115.00 -62.00     0.61629    
 115.00 -61.00     0.47935    
 115.00 -60.00     0.35603    
 115.00 -59.00     0.25226    
 115.00 -58.00     0.16890    
 115.00 -57.00     0.10348    
 115.00 -56.00     0.52694E-01
 115.00 -55.00     0.16826E-01
 115.00 -54.00     0.13227E-02
 115.00 -53.00     0.16296E-01
 115.00 -52.00     0.71808E-01
 115.00 -51.00     0.17208    
 115.00 -50.00     0.30971    
 115.00 -49.00     0.46388    
 115.00 -48.00     0.60383    
 115.00 -47.00     0.69690    
 115.00 -46.00     0.71905    
 115.00 -45.00     0.66365    
 115.00 -44.00     0.54545    
 115.00 -43.00     0.39743    
 115.00 -42.00     0.26115    
 115.00 -41.00     0.17415    
 115.00 -40.00     0.15853    
 115.00 -39.00     0.21478    
 115.00 -38.00     0.32335    
 115.00 -37.00     0.45271    
 115.00 -36.00     0.57091    
 115.00 -35.00     0.65611    
 115.00 -34.00     0.70225    
 115.00 -33.00     0.71807    
 115.00 -32.00     0.72057    
 115.00 -31.00     0.72620    
 115.00 -30.00     0.74360    
 115.00 -29.00     0.77096    
 115.00 -28.00     0.79882    
 115.00 -27.00     0.81640    
 115.00 -26.00     0.81823    
 115.00 -25.00     0.80785    
 115.00 -24.00     0.79663    
 115.00 -23.00     0.79836    
 115.00 -22.00     0.82221    
 115.00 -21.00     0.86750    
 115.00 -20.00     0.92303    
 115.00 -19.00     0.97139    
 115.00 -18.00     0.99654    
 115.00 -17.00     0.99118    
 115.00 -16.00     0.96035    
 115.00 -15.00     0.91956    
 115.00 -14.00     0.88807    
 115.00 -13.00     0.88024    
 115.00 -12.00     0.89912    
 115.00 -11.00     0.93529    
 115.00 -10.00     0.97178    
 115.00  -9.00     0.99303    
 115.00  -8.00     0.99368    
 115.00  -7.00     0.98294    
 115.00  -6.00     0.98188    
 115.00  -5.00      1.0142    
 115.00  -4.00      1.0942    
 115.00  -3.00      1.2168    
 115.00  -2.00      1.3552    
 115.00  -1.00      1.4673    
 115.00   0.00      1.5096    
 115.00   1.00      1.4536    
 115.00   2.00      1.2984    
 115.00   3.00      1.0736    
 115.00   4.00     0.83214    
 115.00   5.00     0.63310    
 115.00   6.00     0.52328    
 115.00   7.00     0.52188    
 115.00   8.00     0.61522    
 115.00   9.00     0.76269    
 115.00  10.00     0.91161    
 115.00  11.00      1.0152    
 115.00  12.00      1.0474    
 115.00  13.00      1.0088    
 115.00  14.00     0.92342    
 115.00  15.00     0.82746    
 115.00  16.00     0.75532    
 115.00  17.00     0.72863    
 115.00  18.00     0.75159    
 115.00  19.00     0.81346    
 115.00  20.00     0.89610    
 115.00  21.00     0.98256    
 115.00  22.00      1.0629    
 115.00  23.00      1.1354    
 115.00  24.00      1.2034    
 115.00  25.00      1.2699    
 115.00  26.00      1.3332    
 115.00  27.00      1.3863    
 115.00  28.00      1.4190    
 115.00  29.00      1.4229    
 115.00  30.00      1.3959    
 115.00  31.00      1.3442    
 115.00  32.00      1.2809    
 115.00  33.00      1.2217    
 115.00  34.00      1.1803    
 115.00  35.00      1.1649    
 115.00  36.00      1.1776    
 115.00  37.00      1.2161    
 115.00  38.00      1.2768    
 115.00  39.00      1.3568    
 115.00  40.00      1.4535    
 115.00  41.00      1.5628    
 115.00  42.00      1.6760    
 115.00  43.00      1.7784    
 115.00  44.00      1.8515    
 115.00  45.00      1.8778    
 115.00  46.00      1.8478    
 115.00  47.00      1.7649    
 115.00  48.00      1.6464    
 115.00  49.00      1.5197    
 115.00  50.00      1.4125    
 115.00  51.00      1.3427    
 115.00  52.00      1.3112    
 115.00  53.00      1.3005    
 115.00  54.00      1.2812    
 115.00  55.00      1.2234    
 115.00  56.00      1.1094    
 115.00  57.00     0.94293    
 115.00  58.00     0.74963    
 115.00  59.00     0.57004    
 115.00  60.00     0.44566    
 115.00  61.00     0.40428    
 115.00  62.00     0.44980    
 115.00  63.00     0.55947    
 115.00  64.00     0.69194    
 115.00  65.00     0.79998    
 115.00  66.00     0.84496    
 115.00  67.00     0.80851    
 115.00  68.00     0.69600    
 115.00  69.00     0.53175    
 115.00  70.00     0.35056    
 115.00  71.00     0.18540    
 115.00  72.00     0.60086E-01
 115.00  73.00    -0.14157E-01
 115.00  74.00    -0.37232E-01
 115.00  75.00    -0.14269E-01
 115.00  76.00     0.47804E-01
 115.00  77.00     0.14311    
 115.00  78.00     0.26766    
 115.00  79.00     0.41313    
 115.00  80.00     0.56644    
 115.00  81.00     0.70794    
 115.00  82.00     0.81688    
 115.00  83.00     0.87530    
 115.00  84.00     0.87939    
 115.00  85.00     0.83777    
 115.00  86.00     0.77512    
 115.00  87.00     0.72248    
 115.00  88.00     0.70993    
 115.00  89.00     0.75121    
 116.00 -89.00      1.0458    
 116.00 -88.00      1.1116    
 116.00 -87.00      1.1758    
 116.00 -86.00      1.2307    
 116.00 -85.00      1.2696    
 116.00 -84.00      1.2906    
 116.00 -83.00      1.2965    
 116.00 -82.00      1.2958    
 116.00 -81.00      1.2988    
 116.00 -80.00      1.3180    
 116.00 -79.00      1.3624    
 116.00 -78.00      1.4348    
 116.00 -77.00      1.5280    
 116.00 -76.00      1.6277    
 116.00 -75.00      1.7152    
 116.00 -74.00      1.7726    
 116.00 -73.00      1.7901    
 116.00 -72.00      1.7648    
 116.00 -71.00      1.7031    
 116.00 -70.00      1.6169    
 116.00 -69.00      1.5190    
 116.00 -68.00      1.4185    
 116.00 -67.00      1.3178    
 116.00 -66.00      1.2145    
 116.00 -65.00      1.1027    
 116.00 -64.00     0.97773    
 116.00 -63.00     0.83939    
 116.00 -62.00     0.69297    
 116.00 -61.00     0.54821    
 116.00 -60.00     0.41487    
 116.00 -59.00     0.30028    
 116.00 -58.00     0.20671    
 116.00 -57.00     0.13269    
 116.00 -56.00     0.75537E-01
 116.00 -55.00     0.35586E-01
 116.00 -54.00     0.18017E-01
 116.00 -53.00     0.32512E-01
 116.00 -52.00     0.88912E-01
 116.00 -51.00     0.19125    
 116.00 -50.00     0.33208    
 116.00 -49.00     0.49041    
 116.00 -48.00     0.63493    
 116.00 -47.00     0.73202    
 116.00 -46.00     0.75631    
 116.00 -45.00     0.69980    
 116.00 -44.00     0.57647    
 116.00 -43.00     0.41950    
 116.00 -42.00     0.27198    
 116.00 -41.00     0.17414    
 116.00 -40.00     0.15130    
 116.00 -39.00     0.20699    
 116.00 -38.00     0.32333    
 116.00 -37.00     0.46853    
 116.00 -36.00     0.60820    
 116.00 -35.00     0.71642    
 116.00 -34.00     0.78244    
 116.00 -33.00     0.81099    
 116.00 -32.00     0.81698    
 116.00 -31.00     0.81721    
 116.00 -30.00     0.82293    
 116.00 -29.00     0.83632    
 116.00 -28.00     0.85186    
 116.00 -27.00     0.86125    
 116.00 -26.00     0.85931    
 116.00 -25.00     0.84758    
 116.00 -24.00     0.83403    
 116.00 -23.00     0.82910    
 116.00 -22.00     0.84015    
 116.00 -21.00     0.86722    
