 326.00  11.00     0.41222    
 326.00  12.00     0.48894    
 326.00  13.00     0.55963    
 326.00  14.00     0.61119    
 326.00  15.00     0.63407    
 326.00  16.00     0.62605    
 326.00  17.00     0.59362    
 326.00  18.00     0.54983    
 326.00  19.00     0.50921    
 326.00  20.00     0.48180    
 326.00  21.00     0.46879    
 326.00  22.00     0.46191    
 326.00  23.00     0.44691    
 326.00  24.00     0.40987    
 326.00  25.00     0.34374    
 326.00  26.00     0.25216    
 326.00  27.00     0.14901    
 326.00  28.00     0.53720E-01
 326.00  29.00    -0.15669E-01
 326.00  30.00    -0.48809E-01
 326.00  31.00    -0.46118E-01
 326.00  32.00    -0.17521E-01
 326.00  33.00     0.22410E-01
 326.00  34.00     0.60612E-01
 326.00  35.00     0.90260E-01
 326.00  36.00     0.11211    
 326.00  37.00     0.13214    
 326.00  38.00     0.15686    
 326.00  39.00     0.18865    
 326.00  40.00     0.22362    
 326.00  41.00     0.25249    
 326.00  42.00     0.26469    
 326.00  43.00     0.25327    
 326.00  44.00     0.21802    
 326.00  45.00     0.16609    
 326.00  46.00     0.10915    
 326.00  47.00     0.58228E-01
 326.00  48.00     0.19662E-01
 326.00  49.00    -0.72259E-02
 326.00  50.00    -0.28811E-01
 326.00  51.00    -0.53504E-01
 326.00  52.00    -0.87050E-01
 326.00  53.00    -0.12880    
 326.00  54.00    -0.17192    
 326.00  55.00    -0.20487    
 326.00  56.00    -0.21673    
 326.00  57.00    -0.20099    
 326.00  58.00    -0.15849    
 326.00  59.00    -0.96108E-01
 326.00  60.00    -0.26597E-01
 326.00  61.00     0.36930E-01
 326.00  62.00     0.82620E-01
 326.00  63.00     0.10113    
 326.00  64.00     0.86499E-01
 326.00  65.00     0.35386E-01
 326.00  66.00    -0.52084E-01
 326.00  67.00    -0.17077    
 326.00  68.00    -0.30844    
 326.00  69.00    -0.44402    
 326.00  70.00    -0.55017    
 326.00  71.00    -0.59898    
 326.00  72.00    -0.56899    
 326.00  73.00    -0.45392    
 326.00  74.00    -0.26917    
 326.00  75.00    -0.51827E-01
 326.00  76.00     0.14844    
 326.00  77.00     0.28020    
 326.00  78.00     0.30502    
 326.00  79.00     0.20937    
 326.00  80.00     0.93645E-02
 326.00  81.00    -0.25301    
 326.00  82.00    -0.52220    
 326.00  83.00    -0.74369    
 326.00  84.00    -0.87782    
 326.00  85.00    -0.90907    
 326.00  86.00    -0.84565    
 326.00  87.00    -0.71532    
 326.00  88.00    -0.55157    
 326.00  89.00    -0.38946    
 327.00 -89.00     0.59616    
 327.00 -88.00     0.51706    
 327.00 -87.00     0.46053    
 327.00 -86.00     0.44014    
 327.00 -85.00     0.44852    
 327.00 -84.00     0.46710    
 327.00 -83.00     0.46716    
 327.00 -82.00     0.43801    
 327.00 -81.00     0.37421    
 327.00 -80.00     0.29146    
 327.00 -79.00     0.21136    
 327.00 -78.00     0.15534    
 327.00 -77.00     0.13505    
 327.00 -76.00     0.14758    
 327.00 -75.00     0.18062    
 327.00 -74.00     0.21768    
 327.00 -73.00     0.24596    
 327.00 -72.00     0.26108    
 327.00 -71.00     0.26702    
 327.00 -70.00     0.27176    
 327.00 -69.00     0.27957    
 327.00 -68.00     0.28881    
 327.00 -67.00     0.29119    
 327.00 -66.00     0.27662    
 327.00 -65.00     0.24097    
 327.00 -64.00     0.19203    
 327.00 -63.00     0.14953    
 327.00 -62.00     0.14095    
 327.00 -61.00     0.19117    
 327.00 -60.00     0.31178    
 327.00 -59.00     0.49530    
 327.00 -58.00     0.71454    
 327.00 -57.00     0.93085    
 327.00 -56.00      1.1058    
 327.00 -55.00      1.2130    
 327.00 -54.00      1.2456    
 327.00 -53.00      1.2155    
 327.00 -52.00      1.1465    
 327.00 -51.00      1.0631    
 327.00 -50.00     0.98065    
 327.00 -49.00     0.90073    
 327.00 -48.00     0.81364    
 327.00 -47.00     0.70623    
 327.00 -46.00     0.57149    
 327.00 -45.00     0.41582    
 327.00 -44.00     0.26022    
 327.00 -43.00     0.13518    
 327.00 -42.00     0.70824E-01
 327.00 -41.00     0.86513E-01
 327.00 -40.00     0.18403    
 327.00 -39.00     0.34659    
 327.00 -38.00     0.54403    
 327.00 -37.00     0.74199    
 327.00 -36.00     0.91127    
 327.00 -35.00      1.0345    
 327.00 -34.00      1.1081    
 327.00 -33.00      1.1397    
 327.00 -32.00      1.1430    
 327.00 -31.00      1.1315    
 327.00 -30.00      1.1149    
 327.00 -29.00      1.0968    
 327.00 -28.00      1.0761    
 327.00 -27.00      1.0482    
 327.00 -26.00      1.0079    
 327.00 -25.00     0.95121    
 327.00 -24.00     0.87645    
 327.00 -23.00     0.78588    
 327.00 -22.00     0.68634    
 327.00 -21.00     0.58944    
 327.00 -20.00     0.51036    
 327.00 -19.00     0.46476    
 327.00 -18.00     0.46414    
 327.00 -17.00     0.51084    
 327.00 -16.00     0.59465    
 327.00 -15.00     0.69296    
 327.00 -14.00     0.77547    
 327.00 -13.00     0.81268    
 327.00 -12.00     0.78572    
 327.00 -11.00     0.69404    
 327.00 -10.00     0.55779    
 327.00  -9.00     0.41330    
 327.00  -8.00     0.30265    
 327.00  -7.00     0.26039    
 327.00  -6.00     0.30213    
 327.00  -5.00     0.41884    
 327.00  -4.00     0.57904    
 327.00  -3.00     0.73830    
 327.00  -2.00     0.85265    
 327.00  -1.00     0.89146    
 327.00   0.00     0.84559    
 327.00   1.00     0.72849    
 327.00   2.00     0.57054    
 327.00   3.00     0.40913    
 327.00   4.00     0.27822    
 327.00   5.00     0.20053    
 327.00   6.00     0.18430    
 327.00   7.00     0.22450    
 327.00   8.00     0.30695    
 327.00   9.00     0.41320    
 327.00  10.00     0.52454    
 327.00  11.00     0.62458    
 327.00  12.00     0.70049    
 327.00  13.00     0.74394    
 327.00  14.00     0.75199    
 327.00  15.00     0.72792    
 327.00  16.00     0.68128    
 327.00  17.00     0.62613    
 327.00  18.00     0.57753    
 327.00  19.00     0.54670    
 327.00  20.00     0.53679    
 327.00  21.00     0.54095    
 327.00  22.00     0.54406    
 327.00  23.00     0.52791    
 327.00  24.00     0.47821    
 327.00  25.00     0.39077    
 327.00  26.00     0.27432    
 327.00  27.00     0.14851    
 327.00  28.00     0.37848E-01
 327.00  29.00    -0.36514E-01
 327.00  30.00    -0.63732E-01
 327.00  31.00    -0.46477E-01
 327.00  32.00     0.83765E-03
 327.00  33.00     0.57925E-01
 327.00  34.00     0.10610    
 327.00  35.00     0.13438    
 327.00  36.00     0.14184    
 327.00  37.00     0.13579    
 327.00  38.00     0.12677    
 327.00  39.00     0.12309    
 327.00  40.00     0.12720    
 327.00  41.00     0.13521    
 327.00  42.00     0.13981    
 327.00  43.00     0.13464    
 327.00  44.00     0.11749    
 327.00  45.00     0.91651E-01
 327.00  46.00     0.64082E-01
 327.00  47.00     0.41285E-01
 327.00  48.00     0.26151E-01
 327.00  49.00     0.15964E-01
 327.00  50.00     0.40200E-02
 327.00  51.00    -0.17211E-01
 327.00  52.00    -0.51562E-01
 327.00  53.00    -0.96136E-01
 327.00  54.00    -0.14198    
 327.00  55.00    -0.17612    
 327.00  56.00    -0.18731    
 327.00  57.00    -0.17007    
 327.00  58.00    -0.12750    
 327.00  59.00    -0.69522E-01
 327.00  60.00    -0.11826E-01
 327.00  61.00     0.30593E-01
 327.00  62.00     0.46142E-01
 327.00  63.00     0.28072E-01
 327.00  64.00    -0.24533E-01
 327.00  65.00    -0.10869    
 327.00  66.00    -0.21810    
 327.00  67.00    -0.34338    
 327.00  68.00    -0.47108    
 327.00  69.00    -0.58257    
 327.00  70.00    -0.65594    
 327.00  71.00    -0.67045    
 327.00  72.00    -0.61121    
 327.00  73.00    -0.47688    
 327.00  74.00    -0.28433    
 327.00  75.00    -0.68981E-01
 327.00  76.00     0.12366    
 327.00  77.00     0.24737    
 327.00  78.00     0.26822    
 327.00  79.00     0.17517    
 327.00  80.00    -0.15693E-01
 327.00  81.00    -0.26449    
 327.00  82.00    -0.51900    
 327.00  83.00    -0.72834    
 327.00  84.00    -0.85514    
 327.00  85.00    -0.88430    
 327.00  86.00    -0.82410    
 327.00  87.00    -0.69969    
 327.00  88.00    -0.54282    
 327.00  89.00    -0.38625    
 328.00 -89.00     0.59856    
 328.00 -88.00     0.52136    
 328.00 -87.00     0.46612    
 328.00 -86.00     0.44675    
 328.00 -85.00     0.45575    
 328.00 -84.00     0.47508    
 328.00 -83.00     0.47654    
 328.00 -82.00     0.44847    
 328.00 -81.00     0.38624    
 328.00 -80.00     0.30492    
 328.00 -79.00     0.22590    
 328.00 -78.00     0.17002    
 328.00 -77.00     0.14876    
 328.00 -76.00     0.15901    
 328.00 -75.00     0.18862    
 328.00 -74.00     0.22167    
 328.00 -73.00     0.24605    
 328.00 -72.00     0.25796    
 328.00 -71.00     0.26154    
 328.00 -70.00     0.26470    
 328.00 -69.00     0.27095    
 328.00 -68.00     0.27781    
 328.00 -67.00     0.27623    
 328.00 -66.00     0.25605    
 328.00 -65.00     0.21372    
 328.00 -64.00     0.15850    
 328.00 -63.00     0.11159    
 328.00 -62.00     0.10185    
 328.00 -61.00     0.15451    
 328.00 -60.00     0.28040    
 328.00 -59.00     0.47022    
 328.00 -58.00     0.69473    
 328.00 -57.00     0.91358    
 328.00 -56.00      1.0878    
 328.00 -55.00      1.1918    
 328.00 -54.00      1.2209    
 328.00 -53.00      1.1891    
 328.00 -52.00      1.1220    
 328.00 -51.00      1.0448    
 328.00 -50.00     0.97167    
 328.00 -49.00     0.90254    
 328.00 -48.00     0.82550    
 328.00 -47.00     0.72606    
 328.00 -46.00     0.59691    
 328.00 -45.00     0.44520    
 328.00 -44.00     0.29309    
 328.00 -43.00     0.17182    
 328.00 -42.00     0.11117    
 328.00 -41.00     0.12913    
 328.00 -40.00     0.22574    
 328.00 -39.00     0.38310    
 328.00 -38.00     0.57167    
 328.00 -37.00     0.75964    
 328.00 -36.00     0.92164    
 328.00 -35.00      1.0440    
 328.00 -34.00      1.1249    
 328.00 -33.00      1.1706    
 328.00 -32.00      1.1896    
 328.00 -31.00      1.1887    
 328.00 -30.00      1.1708    
 328.00 -29.00      1.1360    
 328.00 -28.00      1.0846    
 328.00 -27.00      1.0191    
 328.00 -26.00     0.94498    
 328.00 -25.00     0.86937    
 328.00 -24.00     0.79908    
 328.00 -23.00     0.73870    
 328.00 -22.00     0.69052    
 328.00 -21.00     0.65585    
 328.00 -20.00     0.63685    
 328.00 -19.00     0.63730    
 328.00 -18.00     0.66126    
 328.00 -17.00     0.70969    
 328.00 -16.00     0.77662    
 328.00 -15.00     0.84713    
 328.00 -14.00     0.89908    
 328.00 -13.00     0.90913    
 328.00 -12.00     0.86125    
 328.00 -11.00     0.75478    
 328.00 -10.00     0.60832    
 328.00  -9.00     0.45695    
 328.00  -8.00     0.34289    
 328.00  -7.00     0.30217    
 328.00  -6.00     0.35188    
 328.00  -5.00     0.48277    
 328.00  -4.00     0.66018    
 328.00  -3.00     0.83355    
 328.00  -2.00     0.95138    
 328.00  -1.00     0.97684    
 328.00   0.00     0.89870    
 328.00   1.00     0.73415    
 328.00   2.00     0.52301    
 328.00   3.00     0.31554    
 328.00   4.00     0.15826    
 328.00   5.00     0.82186E-01
 328.00   6.00     0.96747E-01
 328.00   7.00     0.19030    
 328.00   8.00     0.33595    
 328.00   9.00     0.50006    
 328.00  10.00     0.65057    
 328.00  11.00     0.76313    
 328.00  12.00     0.82426    
 328.00  13.00     0.83174    
 328.00  14.00     0.79328    
 328.00  15.00     0.72390    
 328.00  16.00     0.64267    
 328.00  17.00     0.56882    
 328.00  18.00     0.51753    
 328.00  19.00     0.49602    
 328.00  20.00     0.50120    
 328.00  21.00     0.51998    
 328.00  22.00     0.53266    
 328.00  23.00     0.51910    
 328.00  24.00     0.46568    
 328.00  25.00     0.37086    
 328.00  26.00     0.24683    
 328.00  27.00     0.11662    
 328.00  28.00     0.69935E-02
 328.00  29.00    -0.60090E-01
 328.00  30.00    -0.74701E-01
 328.00  31.00    -0.41931E-01
 328.00  32.00     0.20316E-01
 328.00  33.00     0.87888E-01
 328.00  34.00     0.13870    
 328.00  35.00     0.15963    
 328.00  36.00     0.14962    
 328.00  37.00     0.11798    
 328.00  38.00     0.79231E-01
 328.00  39.00     0.46831E-01
 328.00  40.00     0.28418E-01
 328.00  41.00     0.24235E-01
 328.00  42.00     0.29066E-01
 328.00  43.00     0.36276E-01
 328.00  44.00     0.41207E-01
 328.00  45.00     0.43177E-01
 328.00  46.00     0.44629E-01
 328.00  47.00     0.48003E-01
 328.00  48.00     0.53248E-01
 328.00  49.00     0.56161E-01
 328.00  50.00     0.50126E-01
 328.00  51.00     0.28810E-01
 328.00  52.00    -0.95542E-02
 328.00  53.00    -0.59881E-01
 328.00  54.00    -0.11117    
 328.00  55.00    -0.14925    
 328.00  56.00    -0.16271    
 328.00  57.00    -0.14721    
 328.00  58.00    -0.10808    
 328.00  59.00    -0.58218E-01
 328.00  60.00    -0.15936E-01
 328.00  61.00     0.22080E-02
 328.00  62.00    -0.14808E-01
 328.00  63.00    -0.70755E-01
 328.00  64.00    -0.16128    
 328.00  65.00    -0.27702    
 328.00  66.00    -0.40561    
 328.00  67.00    -0.53370    
 328.00  68.00    -0.64706    
 328.00  69.00    -0.73006    
 328.00  70.00    -0.76669    
 328.00  71.00    -0.74375    
 328.00  72.00    -0.65319    
 328.00  73.00    -0.49866    
 328.00  74.00    -0.29830    
 328.00  75.00    -0.85555E-01
 328.00  76.00     0.98550E-01
 328.00  77.00     0.21335    
 328.00  78.00     0.22964    
 328.00  79.00     0.13898    
 328.00  80.00    -0.42579E-01
 328.00  81.00    -0.27739    
 328.00  82.00    -0.51672    
 328.00  83.00    -0.71341    
 328.00  84.00    -0.83253    
 328.00  85.00    -0.85939    
 328.00  86.00    -0.80235    
 328.00  87.00    -0.68389    
 328.00  88.00    -0.53395    
 328.00  89.00    -0.38300    
 329.00 -89.00     0.60097    
 329.00 -88.00     0.52567    
 329.00 -87.00     0.47168    
 329.00 -86.00     0.45328    
 329.00 -85.00     0.46292    
 329.00 -84.00     0.48305    
 329.00 -83.00     0.48617    
 329.00 -82.00     0.45939    
 329.00 -81.00     0.39896    
 329.00 -80.00     0.31920    
 329.00 -79.00     0.24121    
 329.00 -78.00     0.18521    
 329.00 -77.00     0.16248    
 329.00 -76.00     0.16981    
 329.00 -75.00     0.19529    
 329.00 -74.00     0.22357    
 329.00 -73.00     0.24330    
 329.00 -72.00     0.25117    
 329.00 -71.00     0.25160    
 329.00 -70.00     0.25232    
 329.00 -69.00     0.25630    
 329.00 -68.00     0.26041    
 329.00 -67.00     0.25504    
 329.00 -66.00     0.23011    
 329.00 -65.00     0.18261    
 329.00 -64.00     0.12283    
 329.00 -63.00     0.73014E-01
 329.00 -62.00     0.62586E-01
 329.00 -61.00     0.11656    
 329.00 -60.00     0.24471    
 329.00 -59.00     0.43604    
 329.00 -58.00     0.65984    
 329.00 -57.00     0.87500    
 329.00 -56.00      1.0431    
 329.00 -55.00      1.1406    
 329.00 -54.00      1.1651    
 329.00 -53.00      1.1335    
 329.00 -52.00      1.0726    
 329.00 -51.00      1.0075    
 329.00 -50.00     0.95124    
 329.00 -49.00     0.90103    
 329.00 -48.00     0.84261    
 329.00 -47.00     0.75993    
 329.00 -46.00     0.64529    
 329.00 -45.00     0.50628    
 329.00 -44.00     0.36575    
 329.00 -43.00     0.25487    
 329.00 -42.00     0.20221    
 329.00 -41.00     0.22358    
 329.00 -40.00     0.31685    
 329.00 -39.00     0.46318    
 329.00 -38.00     0.63433    
 329.00 -37.00     0.80218    
 329.00 -36.00     0.94663    
 329.00 -35.00      1.0590    
 329.00 -34.00      1.1403    
 329.00 -33.00      1.1956    
 329.00 -32.00      1.2287    
 329.00 -31.00      1.2390    
 329.00 -30.00      1.2221    
 329.00 -29.00      1.1739    
 329.00 -28.00      1.0955    
 329.00 -27.00     0.99571    
 329.00 -26.00     0.89028    
 329.00 -25.00     0.79724    
 329.00 -24.00     0.73121    
 329.00 -23.00     0.69880    
 329.00 -22.00     0.69747    
 329.00 -21.00     0.71821    
 329.00 -20.00     0.75056    
 329.00 -19.00     0.78728    
 329.00 -18.00     0.82623    
 329.00 -17.00     0.86854    
 329.00 -16.00     0.91408    
 329.00 -15.00     0.95704    
 329.00 -14.00     0.98436    
 329.00 -13.00     0.97887    
 329.00 -12.00     0.92649    
 329.00 -11.00     0.82453    
 329.00 -10.00     0.68720    
 329.00  -9.00     0.54508    
 329.00  -8.00     0.43737    
 329.00  -7.00     0.39911    
 329.00  -6.00     0.44779    
 329.00  -5.00     0.57459    
 329.00  -4.00     0.74413    
 329.00  -3.00     0.90361    
 329.00  -2.00     0.99865    
 329.00  -1.00     0.99058    
 329.00   0.00     0.86915    
 329.00   1.00     0.65639    
 329.00   2.00     0.40030    
 329.00   3.00     0.16070    
 329.00   4.00    -0.78474E-02
 329.00   5.00    -0.70669E-01
 329.00   6.00    -0.20698E-01
 329.00   7.00     0.12221    
 329.00   8.00     0.31918    
 329.00   9.00     0.52417    
 329.00  10.00     0.69576    
 329.00  11.00     0.80576    
 329.00  12.00     0.84306    
 329.00  13.00     0.81294    
 329.00  14.00     0.73301    
 329.00  15.00     0.62767    
 329.00  16.00     0.52233    
 329.00  17.00     0.43831    
 329.00  18.00     0.38884    
 329.00  19.00     0.37671    
 329.00  20.00     0.39378    
 329.00  21.00     0.42299    
 329.00  22.00     0.44283    
 329.00  23.00     0.43352    
 329.00  24.00     0.38332    
 329.00  25.00     0.29306    
 329.00  26.00     0.17686    
 329.00  27.00     0.58555E-01
 329.00  28.00    -0.35497E-01
 329.00  29.00    -0.84855E-01
 329.00  30.00    -0.81793E-01
 329.00  31.00    -0.33898E-01
 329.00  32.00     0.38539E-01
 329.00  33.00     0.10943    
 329.00  34.00     0.15556    
 329.00  35.00     0.16379    
 329.00  36.00     0.13439    
 329.00  37.00     0.79327E-01
 329.00  38.00     0.16856E-01
 329.00  39.00    -0.35425E-01
 329.00  40.00    -0.66174E-01
 329.00  41.00    -0.72607E-01
 329.00  42.00    -0.59235E-01
 329.00  43.00    -0.34003E-01
 329.00  44.00    -0.44233E-02
 329.00  45.00     0.24962E-01
 329.00  46.00     0.52589E-01
 329.00  47.00     0.77686E-01
 329.00  48.00     0.98120E-01
 329.00  49.00     0.10899    
 329.00  50.00     0.10427    
 329.00  51.00     0.79090E-01
 329.00  52.00     0.33720E-01
 329.00  53.00    -0.24811E-01
 329.00  54.00    -0.83731E-01
 329.00  55.00    -0.12797    
 329.00  56.00    -0.14621    
 329.00  57.00    -0.13525    
 329.00  58.00    -0.10259    
 329.00  59.00    -0.63939E-01
 329.00  60.00    -0.39889E-01
 329.00  61.00    -0.48280E-01
 329.00  62.00    -0.99318E-01
 329.00  63.00    -0.19353    
 329.00  64.00    -0.32121    
 329.00  65.00    -0.46661    
 329.00  66.00    -0.61152    
 329.00  67.00    -0.73882    
 329.00  68.00    -0.83394    
 329.00  69.00    -0.88463    
 329.00  70.00    -0.88121    
 329.00  71.00    -0.81827    
 329.00  72.00    -0.69480    
 329.00  73.00    -0.51943    
 329.00  74.00    -0.31140    
 329.00  75.00    -0.10190    
 329.00  76.00     0.72825E-01
 329.00  77.00     0.17795    
 329.00  78.00     0.18916    
 329.00  79.00     0.10075    
 329.00  80.00    -0.71309E-01
 329.00  81.00    -0.29172    
 329.00  82.00    -0.51538    
 329.00  83.00    -0.69893    
 329.00  84.00    -0.81001    
 329.00  85.00    -0.83439    
 329.00  86.00    -0.78043    
 329.00  87.00    -0.66793    
 329.00  88.00    -0.52499    
 329.00  89.00    -0.37971    
 330.00 -89.00     0.60339    
 330.00 -88.00     0.52997    
 330.00 -87.00     0.47720    
 330.00 -86.00     0.45973    
 330.00 -85.00     0.47003    
 330.00 -84.00     0.49102    
 330.00 -83.00     0.49605    
 330.00 -82.00     0.47076    
 330.00 -81.00     0.41237    
 330.00 -80.00     0.33430    
 330.00 -79.00     0.25729    
 330.00 -78.00     0.20090    
 330.00 -77.00     0.17623    
 330.00 -76.00     0.18006    
 330.00 -75.00     0.20078    
 330.00 -74.00     0.22366    
 330.00 -73.00     0.23809    
 330.00 -72.00     0.24119    
 330.00 -71.00     0.23772    
 330.00 -70.00     0.23518    
 330.00 -69.00     0.23613    
 330.00 -68.00     0.23699    
 330.00 -67.00     0.22782    
 330.00 -66.00     0.19870    
 330.00 -65.00     0.14718    
 330.00 -64.00     0.84157E-01
 330.00 -63.00     0.32473E-01
 330.00 -62.00     0.21436E-01
 330.00 -61.00     0.75389E-01
 330.00 -60.00     0.20278    
 330.00 -59.00     0.39110    
 330.00 -58.00     0.60879    
 330.00 -57.00     0.81490    
 330.00 -56.00     0.97263    
 330.00 -55.00      1.0610    
 330.00 -54.00      1.0809    
 330.00 -53.00      1.0517    
 330.00 -52.00      1.0012    
 330.00 -51.00     0.95404    
 330.00 -50.00     0.92084    
 330.00 -49.00     0.89604    
 330.00 -48.00     0.86254    
 330.00 -47.00     0.80259    
 330.00 -46.00     0.70801    
 330.00 -45.00     0.58675    
 330.00 -44.00     0.46209    
 330.00 -43.00     0.36475    
 330.00 -42.00     0.32162    
 330.00 -41.00     0.34596    
 330.00 -40.00     0.43325    
 330.00 -39.00     0.56385    
 330.00 -38.00     0.71125    
 330.00 -37.00     0.85167    
 330.00 -36.00     0.97115    
 330.00 -35.00      1.0669    
 330.00 -34.00      1.1434    
 330.00 -33.00      1.2056    
 330.00 -32.00      1.2526    
 330.00 -31.00      1.2768    
 330.00 -30.00      1.2662    
 330.00 -29.00      1.2120    
 330.00 -28.00      1.1152    
 330.00 -27.00     0.98972    
 330.00 -26.00     0.85974    
 330.00 -25.00     0.75271    
 330.00 -24.00     0.68992    
 330.00 -23.00     0.67943    
 330.00 -22.00     0.71418    
 330.00 -21.00     0.77602    
 330.00 -20.00     0.84372    
 330.00 -19.00     0.90128    
 330.00 -18.00     0.94267    
 330.00 -17.00     0.97112    
 330.00 -16.00     0.99368    
 330.00 -15.00      1.0141    
 330.00 -14.00      1.0279    
 330.00 -13.00      1.0231    
 330.00 -12.00     0.98547    
 330.00 -11.00     0.90787    
 330.00 -10.00     0.79743    
 330.00  -9.00     0.67747    
 330.00  -8.00     0.58185    
 330.00  -7.00     0.54319    
 330.00  -6.00     0.57923    
 330.00  -5.00     0.68292    
 330.00  -4.00     0.82098    
 330.00  -3.00     0.94227    
 330.00  -2.00     0.99375    
 330.00  -1.00     0.93851    
 330.00   0.00     0.76943    
 330.00   1.00     0.51337    
 330.00   2.00     0.22435    
 330.00   3.00    -0.32108E-01
 330.00   4.00    -0.19809    
 330.00   5.00    -0.23945    
 330.00   6.00    -0.15416    
 330.00   7.00     0.29296E-01
 330.00   8.00     0.26201    
 330.00   9.00     0.48924    
 330.00  10.00     0.66469    
 330.00  11.00     0.76034    
 330.00  12.00     0.77001    
 330.00  13.00     0.70682    
 330.00  14.00     0.59661    
 330.00  15.00     0.46997    
 330.00  16.00     0.35490    
 330.00  17.00     0.27156    
 330.00  18.00     0.22940    
 330.00  19.00     0.22660    
 330.00  20.00     0.25140    
 330.00  21.00     0.28529    
 330.00  22.00     0.30770    
 330.00  23.00     0.30141    
 330.00  24.00     0.25767    
 330.00  25.00     0.17945    
 330.00  26.00     0.81361E-01
 330.00  27.00    -0.14088E-01
 330.00  28.00    -0.83242E-01
 330.00  29.00    -0.10899    
 330.00  30.00    -0.86755E-01
 330.00  31.00    -0.26486E-01
 330.00  32.00     0.50237E-01
 330.00  33.00     0.11718    
 330.00  34.00     0.15201    
 330.00  35.00     0.14343    
 330.00  36.00     0.94238E-01
 330.00  37.00     0.19538E-01
 330.00  38.00    -0.59149E-01
 330.00  39.00    -0.12124    
 330.00  40.00    -0.15331    
 330.00  41.00    -0.15176    
 330.00  42.00    -0.12188    
 330.00  43.00    -0.73935E-01
 330.00  44.00    -0.18610E-01
 330.00  45.00     0.36005E-01
 330.00  46.00     0.85142E-01
 330.00  47.00     0.12593    
 330.00  48.00     0.15524    
 330.00  49.00     0.16842    
 330.00  50.00     0.16048    
 330.00  51.00     0.12818    
 330.00  52.00     0.73619E-01
 330.00  53.00     0.53331E-02
 330.00  54.00    -0.62571E-01
 330.00  55.00    -0.11455    
 330.00  56.00    -0.13951    
 330.00  57.00    -0.13543    
 330.00  58.00    -0.11178    
 330.00  59.00    -0.86796E-01
 330.00  60.00    -0.83036E-01
 330.00  61.00    -0.11936    
 330.00  62.00    -0.20497    
 330.00  63.00    -0.33703    
 330.00  64.00    -0.50052    
 330.00  65.00    -0.67340    
 330.00  66.00    -0.83182    
 330.00  67.00    -0.95515    
 330.00  68.00     -1.0288    
 330.00  69.00     -1.0441    
 330.00  70.00    -0.99811    
 330.00  71.00    -0.89332    
 330.00  72.00    -0.73592    
 330.00  73.00    -0.53940    
 330.00  74.00    -0.32402    
 330.00  75.00    -0.11842    
 330.00  76.00     0.46158E-01
 330.00  77.00     0.14094    
 330.00  78.00     0.14667    
 330.00  79.00     0.60453E-01
 330.00  80.00    -0.10189    
 330.00  81.00    -0.30748    
 330.00  82.00    -0.51498    
 330.00  83.00    -0.68492    
 330.00  84.00    -0.78759    
 330.00  85.00    -0.80932    
 330.00  86.00    -0.75837    
 330.00  87.00    -0.65184    
 330.00  88.00    -0.51593    
 330.00  89.00    -0.37637    
 331.00 -89.00     0.60583    
 331.00 -88.00     0.53428    
 331.00 -87.00     0.48269    
 331.00 -86.00     0.46610    
 331.00 -85.00     0.47708    
 331.00 -84.00     0.49900    
 331.00 -83.00     0.50616    
 331.00 -82.00     0.48258    
 331.00 -81.00     0.42647    
 331.00 -80.00     0.35020    
 331.00 -79.00     0.27412    
 331.00 -78.00     0.21709    
 331.00 -77.00     0.19005    
 331.00 -76.00     0.18986    
 331.00 -75.00     0.20529    
 331.00 -74.00     0.22225    
 331.00 -73.00     0.23088    
 331.00 -72.00     0.22862    
 331.00 -71.00     0.22063    
 331.00 -70.00     0.21406    
 331.00 -69.00     0.21122    
 331.00 -68.00     0.20825    
 331.00 -67.00     0.19505    
 331.00 -66.00     0.16202    
 331.00 -65.00     0.10722    
 331.00 -64.00     0.41809E-01
 331.00 -63.00    -0.11135E-01
 331.00 -62.00    -0.22977E-01
 331.00 -61.00     0.29534E-01
 331.00 -60.00     0.15338    
 331.00 -59.00     0.33480    
 331.00 -58.00     0.54192    
 331.00 -57.00     0.73480    
 331.00 -56.00     0.87904    
 331.00 -55.00     0.95709    
 331.00 -54.00     0.97302    
 331.00 -53.00     0.94865    
 331.00 -52.00     0.91258    
 331.00 -51.00     0.88788    
 331.00 -50.00     0.88243    
 331.00 -49.00     0.88717    
 331.00 -48.00     0.88198    
 331.00 -47.00     0.84726    
 331.00 -46.00     0.77438    
 331.00 -45.00     0.67179    
 331.00 -44.00     0.56320    
 331.00 -43.00     0.47886    
 331.00 -42.00     0.44392    
 331.00 -41.00     0.46910    
 331.00 -40.00     0.54750    
 331.00 -39.00     0.65875    
 331.00 -38.00     0.77822    
 331.00 -37.00     0.88674    
 331.00 -36.00     0.97672    
 331.00 -35.00      1.0517    
 331.00 -34.00      1.1203    
 331.00 -33.00      1.1877    
 331.00 -32.00      1.2496    
 331.00 -31.00      1.2917    
 331.00 -30.00      1.2952    
 331.00 -29.00      1.2459    
 331.00 -28.00      1.1437    
 331.00 -27.00      1.0054    
 331.00 -26.00     0.86166    
 331.00 -25.00     0.74688    
 331.00 -24.00     0.68725    
 331.00 -23.00     0.69165    
 331.00 -22.00     0.74918    
 331.00 -21.00     0.83452    
 331.00 -20.00     0.91857    
 331.00 -19.00     0.97974    
 331.00 -18.00      1.0109    
 331.00 -17.00      1.0192    
 331.00 -16.00      1.0195    
 331.00 -15.00      1.0248    
 331.00 -14.00      1.0377    
 331.00 -13.00      1.0490    
 331.00 -12.00      1.0425    
 331.00 -11.00      1.0042    
 331.00 -10.00     0.93213    
 331.00  -9.00     0.84091    
 331.00  -8.00     0.75802    
 331.00  -7.00     0.71335    
 331.00  -6.00     0.72544    
 331.00  -5.00     0.79066    
 331.00  -4.00     0.88032    
 331.00  -3.00     0.94807    
 331.00  -2.00     0.94528    
 331.00  -1.00     0.83915    
 331.00   0.00     0.62658    
 331.00   1.00     0.33838    
 331.00   2.00     0.31878E-01
 331.00   3.00    -0.22562    
 331.00   4.00    -0.37697    
 331.00   5.00    -0.39187    
 331.00   6.00    -0.27487    
 331.00   7.00    -0.62415E-01
 331.00   8.00     0.18931    
 331.00   9.00     0.42098    
 331.00  10.00     0.58576    
 331.00  11.00     0.65928    
 331.00  12.00     0.64192    
 331.00  13.00     0.55422    
 331.00  14.00     0.42793    
 331.00  15.00     0.29633    
 331.00  16.00     0.18639    
 331.00  17.00     0.11427    
 331.00  18.00     0.84226E-01
 331.00  19.00     0.89982E-01
 331.00  20.00     0.11769    
 331.00  21.00     0.14969    
 331.00  22.00     0.16860    
 331.00  23.00     0.16152    
 331.00  24.00     0.12342    
 331.00  25.00     0.59121E-01
 331.00  26.00    -0.17377E-01
 331.00  27.00    -0.86405E-01
 331.00  28.00    -0.12850    
 331.00  29.00    -0.13091    
 331.00  30.00    -0.92562E-01
 331.00  31.00    -0.25399E-01
 331.00  32.00     0.48750E-01
 331.00  33.00     0.10493    
 331.00  34.00     0.12324    
 331.00  35.00     0.95479E-01
 331.00  36.00     0.27819E-01
 331.00  37.00    -0.61434E-01
 331.00  38.00    -0.14806    
 331.00  39.00    -0.20972    
 331.00  40.00    -0.23247    
 331.00  41.00    -0.21357    
 331.00  42.00    -0.16046    
 331.00  43.00    -0.86567E-01
 331.00  44.00    -0.59313E-02
 331.00  45.00     0.70318E-01
 331.00  46.00     0.13522    
 331.00  47.00     0.18506    
 331.00  48.00     0.21691    
 331.00  49.00     0.22724    
 331.00  50.00     0.21253    
 331.00  51.00     0.17115    
 331.00  52.00     0.10655    
 331.00  53.00     0.28216E-01
 331.00  54.00    -0.49002E-01
 331.00  55.00    -0.10951    
 331.00  56.00    -0.14257    
 331.00  57.00    -0.14722    
 331.00  58.00    -0.13461    
 331.00  59.00    -0.12518    
 331.00  60.00    -0.14307    
 331.00  61.00    -0.20794    
 331.00  62.00    -0.32788    
 331.00  63.00    -0.49673    
 331.00  64.00    -0.69426    
 331.00  65.00    -0.89235    
 331.00  66.00     -1.0618    
 331.00  67.00     -1.1785    
 331.00  68.00     -1.2282    
 331.00  69.00     -1.2060    
 331.00  70.00     -1.1159    
 331.00  71.00    -0.96814    
 331.00  72.00    -0.77638    
 331.00  73.00    -0.55881    
 331.00  74.00    -0.33654    
 331.00  75.00    -0.13554    
 331.00  76.00     0.18206E-01
 331.00  77.00     0.10211    
 331.00  78.00     0.10207    
 331.00  79.00     0.18045E-01
 331.00  80.00    -0.13431    
 331.00  81.00    -0.32466    
 331.00  82.00    -0.51551    
 331.00  83.00    -0.67139    
 331.00  84.00    -0.76530    
 331.00  85.00    -0.78424    
 331.00  86.00    -0.73621    
 331.00  87.00    -0.63564    
 331.00  88.00    -0.50679    
 331.00  89.00    -0.37300    
 332.00 -89.00     0.60827    
 332.00 -88.00     0.53858    
 332.00 -87.00     0.48816    
 332.00 -86.00     0.47240    
 332.00 -85.00     0.48407    
 332.00 -84.00     0.50701    
 332.00 -83.00     0.51646    
 332.00 -82.00     0.49484    
 332.00 -81.00     0.44123    
 332.00 -80.00     0.36687    
 332.00 -79.00     0.29167    
 332.00 -78.00     0.23376    
 332.00 -77.00     0.20395    
 332.00 -76.00     0.19929    
 332.00 -75.00     0.20901    
 332.00 -74.00     0.21969    
 332.00 -73.00     0.22217    
 332.00 -72.00     0.21416    
 332.00 -71.00     0.20116    
 332.00 -70.00     0.18992    
 332.00 -69.00     0.18258    
 332.00 -68.00     0.17514    
 332.00 -67.00     0.15755    
 332.00 -66.00     0.12058    
 332.00 -65.00     0.62851E-01
 332.00 -64.00    -0.45135E-02
 332.00 -63.00    -0.58505E-01
 332.00 -62.00    -0.71547E-01
 332.00 -61.00    -0.21825E-01
 332.00 -60.00     0.96145E-01
 332.00 -59.00     0.26759    
 332.00 -58.00     0.46088    
 332.00 -57.00     0.63775    
 332.00 -56.00     0.76682    
 332.00 -55.00     0.83434    
 332.00 -54.00     0.84768    
 332.00 -53.00     0.83083    
 332.00 -52.00     0.81237    
 332.00 -51.00     0.81337    
 332.00 -50.00     0.83824    
 332.00 -49.00     0.87404    
 332.00 -48.00     0.89745    
 332.00 -47.00     0.88699    
 332.00 -46.00     0.83381    
 332.00 -45.00     0.74703    
 332.00 -44.00     0.65109    
 332.00 -43.00     0.57604    
 332.00 -42.00     0.54556    
 332.00 -41.00     0.56808    
 332.00 -40.00     0.63453    
 332.00 -39.00     0.72389    
 332.00 -38.00     0.81328    
 332.00 -37.00     0.88792    
 332.00 -36.00     0.94637    
 332.00 -35.00     0.99844    
 332.00 -34.00      1.0571    
 332.00 -33.00      1.1289    
 332.00 -32.00      1.2068    
 332.00 -31.00      1.2712    
 332.00 -30.00      1.2969    
 332.00 -29.00      1.2648    
 332.00 -28.00      1.1722    
 332.00 -27.00      1.0370    
 332.00 -26.00     0.89333    
 332.00 -25.00     0.77975    
 332.00 -24.00     0.72534    
 332.00 -23.00     0.73904    
 332.00 -22.00     0.80704    
 332.00 -21.00     0.89926    
 332.00 -20.00     0.98203    
 332.00 -19.00      1.0315    
 332.00 -18.00      1.0421    
 332.00 -17.00      1.0264    
 332.00 -16.00      1.0069    
 332.00 -15.00      1.0042    
 332.00 -14.00      1.0261    
 332.00 -13.00      1.0639    
 332.00 -12.00      1.0973    
 332.00 -11.00      1.1042    
 332.00 -10.00      1.0731    
 332.00  -9.00      1.0096    
 332.00  -8.00     0.93535    
 332.00  -7.00     0.87810    
 332.00  -6.00     0.85822    
 332.00  -5.00     0.87672    
 332.00  -4.00     0.91115    
 332.00  -3.00     0.92168    
 332.00  -2.00     0.86567    
 332.00  -1.00     0.71534    
 332.00   0.00     0.47141    
 332.00   1.00     0.16710    
 332.00   2.00    -0.13962    
 332.00   3.00    -0.38300    
 332.00   4.00    -0.50984    
 332.00   5.00    -0.49584    
 332.00   6.00    -0.35256    
 332.00   7.00    -0.12291    
 332.00   8.00     0.13267    
 332.00   9.00     0.35416    
 332.00  10.00     0.49784    
 332.00  11.00     0.54547    
 332.00  12.00     0.50476    
 332.00  13.00     0.40254    
 332.00  14.00     0.27397    
 332.00  15.00     0.15185    
 332.00  16.00     0.59174E-01
 332.00  17.00     0.61343E-02
 332.00  18.00    -0.89506E-02
 332.00  19.00     0.37490E-02
 332.00  20.00     0.29688E-01
 332.00  21.00     0.53712E-01
 332.00  22.00     0.63149E-01
 332.00  23.00     0.50230E-01
 332.00  24.00     0.13843E-01
 332.00  25.00    -0.39757E-01
 332.00  26.00    -0.97890E-01
 332.00  27.00    -0.14444    
 332.00  28.00    -0.16460    
 332.00  29.00    -0.15007    
 332.00  30.00    -0.10296    
 332.00  31.00    -0.36507E-01
 332.00  32.00     0.28059E-01
 332.00  33.00     0.67998E-01
 332.00  34.00     0.66664E-01
 332.00  35.00     0.19553E-01
 332.00  36.00    -0.63582E-01
 332.00  37.00    -0.16145    
 332.00  38.00    -0.24787    
 332.00  39.00    -0.29986    
 332.00  40.00    -0.30433    
 332.00  41.00    -0.26077    
 332.00  42.00    -0.17990    
 332.00  43.00    -0.78827E-01
 332.00  44.00     0.25050E-01
 332.00  45.00     0.11824    
 332.00  46.00     0.19274    
 332.00  47.00     0.24523    
 332.00  48.00     0.27417    
 332.00  49.00     0.27791    
 332.00  50.00     0.25462    
 332.00  51.00     0.20402    
 332.00  52.00     0.13026    
 332.00  53.00     0.43073E-01
 332.00  54.00    -0.42645E-01
 332.00  55.00    -0.11164    
 332.00  56.00    -0.15358    
 332.00  57.00    -0.16836    
 332.00  58.00    -0.16840    
 332.00  59.00    -0.17586    
 332.00  60.00    -0.21612    
 332.00  61.00    -0.30947    
 332.00  62.00    -0.46285    
 332.00  63.00    -0.66690    
 332.00  64.00    -0.89649    
 332.00  65.00     -1.1176    
 332.00  66.00     -1.2959    
 332.00  67.00     -1.4042    
 332.00  68.00     -1.4284    
 332.00  69.00     -1.3677    
 332.00  70.00     -1.2327    
 332.00  71.00     -1.0419    
 332.00  72.00    -0.81601    
 332.00  73.00    -0.57786    
 332.00  74.00    -0.34940    
 332.00  75.00    -0.15368    
 332.00  76.00    -0.11372E-01
 332.00  77.00     0.61245E-01
 332.00  78.00     0.55250E-01
 332.00  79.00    -0.26482E-01
 332.00  80.00    -0.16855    
 332.00  81.00    -0.34323    
 332.00  82.00    -0.51697    
 332.00  83.00    -0.65834    
 332.00  84.00    -0.74315    
 332.00  85.00    -0.75918    
 332.00  86.00    -0.71396    
 332.00  87.00    -0.61935    
 332.00  88.00    -0.49758    
 332.00  89.00    -0.36958    
 333.00 -89.00     0.61072    
 333.00 -88.00     0.54288    
 333.00 -87.00     0.49361    
 333.00 -86.00     0.47863    
 333.00 -85.00     0.49102    
 333.00 -84.00     0.51505    
 333.00 -83.00     0.52692    
 333.00 -82.00     0.50753    
 333.00 -81.00     0.45663    
 333.00 -80.00     0.38429    
 333.00 -79.00     0.30991    
 333.00 -78.00     0.25089    
 333.00 -77.00     0.21795    
 333.00 -76.00     0.20845    
 333.00 -75.00     0.21216    
 333.00 -74.00     0.21635    
 333.00 -73.00     0.21252    
 333.00 -72.00     0.19859    
 333.00 -71.00     0.18029    
 333.00 -70.00     0.16389    
 333.00 -69.00     0.15145    
 333.00 -68.00     0.13889    
 333.00 -67.00     0.11639    
 333.00 -66.00     0.75237E-01
 333.00 -65.00     0.14555E-01
 333.00 -64.00    -0.54674E-01
 333.00 -63.00    -0.10982    
 333.00 -62.00    -0.12457    
 333.00 -61.00    -0.78792E-01
 333.00 -60.00     0.31527E-01
 333.00 -59.00     0.19091    
 333.00 -58.00     0.36839    
 333.00 -57.00     0.52793    
 333.00 -56.00     0.64156    
 333.00 -55.00     0.69945    
 333.00 -54.00     0.71208    
 333.00 -53.00     0.70516    
 333.00 -52.00     0.70666    
 333.00 -51.00     0.73500    
 333.00 -50.00     0.79064    
 333.00 -49.00     0.85650    
 333.00 -48.00     0.90604    
 333.00 -47.00     0.91607    
 333.00 -46.00     0.87775    
 333.00 -45.00     0.80124    
 333.00 -44.00     0.71208    
 333.00 -43.00     0.64056    
 333.00 -42.00     0.60939    
 333.00 -41.00     0.62514    
 333.00 -40.00     0.67686    
 333.00 -39.00     0.74289    
 333.00 -38.00     0.80180    
 333.00 -37.00     0.84263    
 333.00 -36.00     0.86944    
 333.00 -35.00     0.89782    
 333.00 -34.00     0.94526    
 333.00 -33.00      1.0200    
 333.00 -32.00      1.1139    
 333.00 -31.00      1.2034    
 333.00 -30.00      1.2581    
 333.00 -29.00      1.2542    
 333.00 -28.00      1.1858    
 333.00 -27.00      1.0698    
 333.00 -26.00     0.94092    
 333.00 -25.00     0.83913    
 333.00 -24.00     0.79421    
 333.00 -23.00     0.81448    
 333.00 -22.00     0.88418    
 333.00 -21.00     0.97083    
 333.00 -20.00      1.0393    
 333.00 -19.00      1.0667    
 333.00 -18.00      1.0508    
 333.00 -17.00      1.0101    
 333.00 -16.00     0.97399    
 333.00 -15.00     0.96851    
 333.00 -14.00      1.0042    
 333.00 -13.00      1.0710    
 333.00 -12.00      1.1433    
 333.00 -11.00      1.1910    
 333.00 -10.00      1.1939    
 333.00  -9.00      1.1504    
 333.00  -8.00      1.0776    
 333.00  -7.00      1.0025    
 333.00  -6.00     0.94797    
 333.00  -5.00     0.92030    
 333.00  -4.00     0.90350    
 333.00  -3.00     0.86444    
 333.00  -2.00     0.76649    
 333.00  -1.00     0.58655    
 333.00   0.00     0.32827    
 333.00   1.00     0.25678E-01
 333.00   2.00    -0.26478    
 333.00   3.00    -0.48128    
 333.00   4.00    -0.57650    
 333.00   5.00    -0.53306    
 333.00   6.00    -0.36911    
 333.00   7.00    -0.13219    
 333.00   8.00     0.11586    
 333.00   9.00     0.31738    
 333.00  10.00     0.43435    
 333.00  11.00     0.45596    
 333.00  12.00     0.39713    
 333.00  13.00     0.28951    
 333.00  14.00     0.16933    
 333.00  15.00     0.66579E-01
 333.00  16.00    -0.15544E-02
 333.00  17.00    -0.31731E-01
 333.00  18.00    -0.31412E-01
 333.00  19.00    -0.13810E-01
 333.00  20.00     0.69225E-02
 333.00  21.00     0.19038E-01
 333.00  22.00     0.14932E-01
 333.00  23.00    -0.81713E-02
 333.00  24.00    -0.48011E-01
 333.00  25.00    -0.97454E-01
 333.00  26.00    -0.14546    
 333.00  27.00    -0.17935    
 333.00  28.00    -0.18838    
 333.00  29.00    -0.16780    
 333.00  30.00    -0.12190    
 333.00  31.00    -0.64377E-01
 333.00  32.00    -0.15196E-01
 333.00  33.00     0.54338E-02
 333.00  34.00    -0.15829E-01
 333.00  35.00    -0.79972E-01
 333.00  36.00    -0.17404    
 333.00  37.00    -0.27432    
 333.00  38.00    -0.35342    
 333.00  39.00    -0.38864    
 333.00  40.00    -0.36873    
 333.00  41.00    -0.29639    
 333.00  42.00    -0.18624    
 333.00  43.00    -0.59309E-01
 333.00  44.00     0.63948E-01
 333.00  45.00     0.16848    
 333.00  46.00     0.24641    
 333.00  47.00     0.29602    
 333.00  48.00     0.31811    
 333.00  49.00     0.31349    
 333.00  50.00     0.28196    
 333.00  51.00     0.22413    
 333.00  52.00     0.14399    
 333.00  53.00     0.50679E-01
 333.00  54.00    -0.41591E-01
 333.00  55.00    -0.11823    
 333.00  56.00    -0.16929    
 333.00  57.00    -0.19517    
 333.00  58.00    -0.20900    
 333.00  59.00    -0.23420    
 333.00  60.00    -0.29702    
 333.00  61.00    -0.41820    
 333.00  62.00    -0.60361    
 333.00  63.00    -0.84095    
 333.00  64.00     -1.1005    
 333.00  65.00     -1.3428    
 333.00  66.00     -1.5284    
 333.00  67.00     -1.6272    
 333.00  68.00     -1.6255    
 333.00  69.00     -1.5263    
 333.00  70.00     -1.3470    
 333.00  71.00     -1.1137    
 333.00  72.00    -0.85460    
 333.00  73.00    -0.59679    
 333.00  74.00    -0.36299    
 333.00  75.00    -0.17327    
 333.00  76.00    -0.42909E-01
 333.00  77.00     0.18145E-01
 333.00  78.00     0.61397E-02
 333.00  79.00    -0.73124E-01
 333.00  80.00    -0.20456    
 333.00  81.00    -0.36313    
 333.00  82.00    -0.51934    
 333.00  83.00    -0.64579    
 333.00  84.00    -0.72117    
 333.00  85.00    -0.73417    
 333.00  86.00    -0.69166    
 333.00  87.00    -0.60301    
 333.00  88.00    -0.48830    
 333.00  89.00    -0.36614    
 334.00 -89.00     0.61318    
 334.00 -88.00     0.54719    
 334.00 -87.00     0.49903    
 334.00 -86.00     0.48478    
 334.00 -85.00     0.49792    
 334.00 -84.00     0.52314    
 334.00 -83.00     0.53752    
 334.00 -82.00     0.52063    
 334.00 -81.00     0.47264    
 334.00 -80.00     0.40242    
 334.00 -79.00     0.32879    
 334.00 -78.00     0.26844    
 334.00 -77.00     0.23207    
 334.00 -76.00     0.21743    
 334.00 -75.00     0.21494    
 334.00 -74.00     0.21258    
 334.00 -73.00     0.20249    
 334.00 -72.00     0.18270    
 334.00 -71.00     0.15901    
 334.00 -70.00     0.13720    
 334.00 -69.00     0.11918    
 334.00 -68.00     0.10093    
 334.00 -67.00     0.72970E-01
 334.00 -66.00     0.27184E-01
 334.00 -65.00    -0.36753E-01
 334.00 -64.00    -0.10804    
 334.00 -63.00    -0.16466    
 334.00 -62.00    -0.18166    
 334.00 -61.00    -0.14072    
 334.00 -60.00    -0.39181E-01
 334.00 -59.00     0.10704    
 334.00 -58.00     0.26802    
 334.00 -57.00     0.41027    
 334.00 -56.00     0.50940    
 334.00 -55.00     0.55938    
 334.00 -54.00     0.57348    
 334.00 -53.00     0.57852    
 334.00 -52.00     0.60126    
 334.00 -51.00     0.65699    
 334.00 -50.00     0.74192    
 334.00 -49.00     0.83477    
 334.00 -48.00     0.90601    
 334.00 -47.00     0.93097    
 334.00 -46.00     0.90117    
 334.00 -45.00     0.82819    
 334.00 -44.00     0.73907    
 334.00 -43.00     0.66478    
 334.00 -42.00     0.62762    
 334.00 -41.00     0.63278    
 334.00 -40.00     0.66777    
 334.00 -39.00     0.71026    
 334.00 -38.00     0.73982    
 334.00 -37.00     0.74850    
 334.00 -36.00     0.74487    
 334.00 -35.00     0.74955    
 334.00 -34.00     0.78424    
 334.00 -33.00     0.85953    
 334.00 -32.00     0.96732    
 334.00 -31.00      1.0818    
 334.00 -30.00      1.1688    
 334.00 -29.00      1.2006    
 334.00 -28.00      1.1676    
 334.00 -27.00      1.0842    
 334.00 -26.00     0.98323    
 334.00 -25.00     0.90348    
 334.00 -24.00     0.87358    
 334.00 -23.00     0.90060    
 334.00 -22.00     0.96770    
 334.00 -21.00      1.0421    
 334.00 -20.00      1.0898    
 334.00 -19.00      1.0908    
 334.00 -18.00      1.0477    
 334.00 -17.00     0.98434    
 334.00 -16.00     0.93514    
 334.00 -15.00     0.92932    
 334.00 -14.00     0.97781    
 334.00 -13.00      1.0680    
 334.00 -12.00      1.1688    
 334.00 -11.00      1.2440    
 334.00 -10.00      1.2670    
 334.00  -9.00      1.2315    
 334.00  -8.00      1.1524    
 334.00  -7.00      1.0572    
 334.00  -6.00     0.97180    
 334.00  -5.00     0.90684    
 334.00  -4.00     0.85176    
 334.00  -3.00     0.77886    
 334.00  -2.00     0.65633    
 334.00  -1.00     0.46467    
 334.00   0.00     0.20937    
 334.00   1.00    -0.75874E-01
 334.00   2.00    -0.33741    
 334.00   3.00    -0.51846    
 334.00   4.00    -0.57825    
 334.00   5.00    -0.50631    
 334.00   6.00    -0.32639    
 334.00   7.00    -0.88888E-01
 334.00   8.00     0.14511    
 334.00   9.00     0.32232    
 334.00  10.00     0.41164    
 334.00  11.00     0.40996    
 334.00  12.00     0.33851    
 334.00  13.00     0.23214    
 334.00  14.00     0.12645    
 334.00  15.00     0.47199E-01
 334.00  16.00     0.52780E-02
 334.00  17.00    -0.24954E-02
 334.00  18.00     0.11584E-01
 334.00  19.00     0.32338E-01
 334.00  20.00     0.46721E-01
 334.00  21.00     0.46407E-01
 334.00  22.00     0.28146E-01
 334.00  23.00    -0.70193E-02
 334.00  24.00    -0.54633E-01
 334.00  25.00    -0.10741    
 334.00  26.00    -0.15589    
 334.00  27.00    -0.18996    
 334.00  28.00    -0.20143    
 334.00  29.00    -0.18742    
 334.00  30.00    -0.15290    
 334.00  31.00    -0.11101    
 334.00  32.00    -0.80197E-01
 334.00  33.00    -0.78432E-01
 334.00  34.00    -0.11648    
 334.00  35.00    -0.19271    
 334.00  36.00    -0.29188    
 334.00  37.00    -0.38867    
 334.00  38.00    -0.45516    
 334.00  39.00    -0.46957    
 334.00  40.00    -0.42297    
 334.00  41.00    -0.32166    
 334.00  42.00    -0.18438    
 334.00  43.00    -0.35836E-01
 334.00  44.00     0.10100    
 334.00  45.00     0.21045    
 334.00  46.00     0.28587    
 334.00  47.00     0.32817    
 334.00  48.00     0.34126    
 334.00  49.00     0.32861    
 334.00  50.00     0.29142    
 334.00  51.00     0.23040    
 334.00  52.00     0.14843    
 334.00  53.00     0.53102E-01
 334.00  54.00    -0.42769E-01
 334.00  55.00    -0.12550    
 334.00  56.00    -0.18540    
 334.00  57.00    -0.22292    
 334.00  58.00    -0.25129    
 334.00  59.00    -0.29460    
 334.00  60.00    -0.37964    
 334.00  61.00    -0.52751    
 334.00  62.00    -0.74313    
 334.00  63.00     -1.0116    
 334.00  64.00     -1.2992    
 334.00  65.00     -1.5610    
 334.00  66.00     -1.7531    
 334.00  67.00     -1.8424    
 334.00  68.00     -1.8154    
 334.00  69.00     -1.6789    
 334.00  70.00     -1.4568    
 334.00  71.00     -1.1827    
 334.00  72.00    -0.89190    
 334.00  73.00    -0.61577    
 334.00  74.00    -0.37769    
 334.00  75.00    -0.19470    
 334.00  76.00    -0.76712E-01
 334.00  77.00    -0.27369E-01
 334.00  78.00    -0.45315E-01
 334.00  79.00    -0.12185    
 334.00  80.00    -0.24229    
 334.00  81.00    -0.38433    
 334.00  82.00    -0.52258    
 334.00  83.00    -0.63373    
 334.00  84.00    -0.69937    
 334.00  85.00    -0.70924    
 334.00  86.00    -0.66933    
 334.00  87.00    -0.58663    
 334.00  88.00    -0.47896    
 334.00  89.00    -0.36266    
 335.00 -89.00     0.61565    
 335.00 -88.00     0.55149    
 335.00 -87.00     0.50443    
 335.00 -86.00     0.49088    
 335.00 -85.00     0.50478    
 335.00 -84.00     0.53128    
 335.00 -83.00     0.54823    
 335.00 -82.00     0.53412    
 335.00 -81.00     0.48921    
 335.00 -80.00     0.42121    
 335.00 -79.00     0.34826    
 335.00 -78.00     0.28638    
 335.00 -77.00     0.24629    
 335.00 -76.00     0.22630    
 335.00 -75.00     0.21754    
 335.00 -74.00     0.20874    
 335.00 -73.00     0.19263    
 335.00 -72.00     0.16730    
 335.00 -71.00     0.13838    
 335.00 -70.00     0.11112    
 335.00 -69.00     0.87261E-01
 335.00 -68.00     0.62844E-01
 335.00 -67.00     0.28880E-01
 335.00 -66.00    -0.22061E-01
 335.00 -65.00    -0.89749E-01
 335.00 -64.00    -0.16347    
 335.00 -63.00    -0.22201    
 335.00 -62.00    -0.24176    
 335.00 -61.00    -0.20621    
 335.00 -60.00    -0.11396    
 335.00 -59.00     0.18948E-01
 335.00 -58.00     0.16384    
 335.00 -57.00     0.28999    
 335.00 -56.00     0.37651    
 335.00 -55.00     0.42086    
 335.00 -54.00     0.43861    
 335.00 -53.00     0.45703    
