 227.00  38.00     0.99885    
 227.00  39.00     0.82566    
 227.00  40.00     0.56561    
 227.00  41.00     0.22146    
 227.00  42.00    -0.19641    
 227.00  43.00    -0.67074    
 227.00  44.00     -1.1788    
 227.00  45.00     -1.6940    
 227.00  46.00     -2.1882    
 227.00  47.00     -2.6338    
 227.00  48.00     -3.0056    
 227.00  49.00     -3.2827    
 227.00  50.00     -3.4500    
 227.00  51.00     -3.4987    
 227.00  52.00     -3.4271    
 227.00  53.00     -3.2397    
 227.00  54.00     -2.9472    
 227.00  55.00     -2.5649    
 227.00  56.00     -2.1115    
 227.00  57.00     -1.6075    
 227.00  58.00     -1.0739    
 227.00  59.00    -0.53177    
 227.00  60.00     0.19311E-02
 227.00  61.00     0.51094    
 227.00  62.00     0.98333    
 227.00  63.00      1.4102    
 227.00  64.00      1.7856    
 227.00  65.00      2.1072    
 227.00  66.00      2.3744    
 227.00  67.00      2.5880    
 227.00  68.00      2.7518    
 227.00  69.00      2.8677    
 227.00  70.00      2.9385    
 227.00  71.00      2.9685    
 227.00  72.00      2.9593    
 227.00  73.00      2.9132    
 227.00  74.00      2.8307    
 227.00  75.00      2.7172    
 227.00  76.00      2.5716    
 227.00  77.00      2.3938    
 227.00  78.00      2.1876    
 227.00  79.00      1.9566    
 227.00  80.00      1.6971    
 227.00  81.00      1.4192    
 227.00  82.00      1.1194    
 227.00  83.00     0.80842    
 227.00  84.00     0.49051    
 227.00  85.00     0.16983    
 227.00  86.00    -0.14440    
 227.00  87.00    -0.44499    
 227.00  88.00    -0.72722    
 227.00  89.00    -0.97603    
 228.00 -89.00     0.13355    
 228.00 -88.00    -0.16256    
 228.00 -87.00    -0.45821    
 228.00 -86.00    -0.73945    
 228.00 -85.00    -0.99112    
 228.00 -84.00     -1.2048    
 228.00 -83.00     -1.3698    
 228.00 -82.00     -1.4673    
 228.00 -81.00     -1.5043    
 228.00 -80.00     -1.4821    
 228.00 -79.00     -1.4009    
 228.00 -78.00     -1.2748    
 228.00 -77.00     -1.1127    
 228.00 -76.00    -0.93523    
 228.00 -75.00    -0.75898    
 228.00 -74.00    -0.59719    
 228.00 -73.00    -0.46942    
 228.00 -72.00    -0.38404    
 228.00 -71.00    -0.34971    
 228.00 -70.00    -0.37063    
 228.00 -69.00    -0.44419    
 228.00 -68.00    -0.56429    
 228.00 -67.00    -0.72161    
 228.00 -66.00    -0.90315    
 228.00 -65.00     -1.0934    
 228.00 -64.00     -1.2806    
 228.00 -63.00     -1.4507    
 228.00 -62.00     -1.5937    
 228.00 -61.00     -1.7022    
 228.00 -60.00     -1.7732    
 228.00 -59.00     -1.8071    
 228.00 -58.00     -1.8082    
 228.00 -57.00     -1.7827    
 228.00 -56.00     -1.7393    
 228.00 -55.00     -1.6868    
 228.00 -54.00     -1.6338    
 228.00 -53.00     -1.5872    
 228.00 -52.00     -1.5519    
 228.00 -51.00     -1.5297    
 228.00 -50.00     -1.5199    
 228.00 -49.00     -1.5192    
 228.00 -48.00     -1.5221    
 228.00 -47.00     -1.5222    
 228.00 -46.00     -1.5129    
 228.00 -45.00     -1.4883    
 228.00 -44.00     -1.4445    
 228.00 -43.00     -1.3797    
 228.00 -42.00     -1.2948    
 228.00 -41.00     -1.1938    
 228.00 -40.00     -1.0831    
 228.00 -39.00    -0.97090    
 228.00 -38.00    -0.86660    
 228.00 -37.00    -0.77969    
 228.00 -36.00    -0.71873    
 228.00 -35.00    -0.69045    
 228.00 -34.00    -0.69897    
 228.00 -33.00    -0.74533    
 228.00 -32.00    -0.82731    
 228.00 -31.00    -0.93956    
 228.00 -30.00     -1.0741    
 228.00 -29.00     -1.2210    
 228.00 -28.00     -1.3691    
 228.00 -27.00     -1.5073    
 228.00 -26.00     -1.6251    
 228.00 -25.00     -1.7137    
 228.00 -24.00     -1.7663    
 228.00 -23.00     -1.7788    
 228.00 -22.00     -1.7494    
 228.00 -21.00     -1.6790    
 228.00 -20.00     -1.5706    
 228.00 -19.00     -1.4288    
 228.00 -18.00     -1.2591    
 228.00 -17.00     -1.0676    
 228.00 -16.00    -0.86045    
 228.00 -15.00    -0.64343    
 228.00 -14.00    -0.42173    
 228.00 -13.00    -0.19997    
 228.00 -12.00     0.17753E-01
 228.00 -11.00     0.22772    
 228.00 -10.00     0.42636    
 228.00  -9.00     0.61011    
 228.00  -8.00     0.77535    
 228.00  -7.00     0.91842    
 228.00  -6.00      1.0358    
 228.00  -5.00      1.1247    
 228.00  -4.00      1.1828    
 228.00  -3.00      1.2099    
 228.00  -2.00      1.2070    
 228.00  -1.00      1.1779    
 228.00   0.00      1.1287    
 228.00   1.00      1.0677    
 228.00   2.00      1.0053    
 228.00   3.00     0.95354    
 228.00   4.00     0.92466    
 228.00   5.00     0.93050    
 228.00   6.00     0.98115    
 228.00   7.00      1.0839    
 228.00   8.00      1.2420    
 228.00   9.00      1.4546    
 228.00  10.00      1.7154    
 228.00  11.00      2.0138    
 228.00  12.00      2.3347    
 228.00  13.00      2.6599    
 228.00  14.00      2.9693    
 228.00  15.00      3.2425    
 228.00  16.00      3.4608    
 228.00  17.00      3.6085    
 228.00  18.00      3.6746    
 228.00  19.00      3.6537    
 228.00  20.00      3.5470    
 228.00  21.00      3.3617    
 228.00  22.00      3.1110    
 228.00  23.00      2.8127    
 228.00  24.00      2.4875    
 228.00  25.00      2.1577    
 228.00  26.00      1.8446    
 228.00  27.00      1.5666    
 228.00  28.00      1.3380    
 228.00  29.00      1.1672    
 228.00  30.00      1.0560    
 228.00  31.00     0.99974    
 228.00  32.00     0.98738    
 228.00  33.00      1.0029    
 228.00  34.00      1.0268    
 228.00  35.00      1.0379    
 228.00  36.00      1.0155    
 228.00  37.00     0.94136    
 228.00  38.00     0.80147    
 228.00  39.00     0.58762    
 228.00  40.00     0.29818    
 228.00  41.00    -0.61582E-01
 228.00  42.00    -0.47976    
 228.00  43.00    -0.93871    
 228.00  44.00     -1.4164    
 228.00  45.00     -1.8882    
 228.00  46.00     -2.3285    
 228.00  47.00     -2.7130    
 228.00  48.00     -3.0203    
 228.00  49.00     -3.2333    
 228.00  50.00     -3.3402    
 228.00  51.00     -3.3356    
 228.00  52.00     -3.2198    
 228.00  53.00     -2.9992    
 228.00  54.00     -2.6850    
 228.00  55.00     -2.2924    
 228.00  56.00     -1.8393    
 228.00  57.00     -1.3448    
 228.00  58.00    -0.82774    
 228.00  59.00    -0.30725    
 228.00  60.00     0.20189    
 228.00  61.00     0.68527    
 228.00  62.00      1.1327    
 228.00  63.00      1.5365    
 228.00  64.00      1.8915    
 228.00  65.00      2.1959    
 228.00  66.00      2.4491    
 228.00  67.00      2.6516    
 228.00  68.00      2.8068    
 228.00  69.00      2.9161    
 228.00  70.00      2.9818    
 228.00  71.00      3.0076    
 228.00  72.00      2.9947    
 228.00  73.00      2.9455    
 228.00  74.00      2.8602    
 228.00  75.00      2.7443    
 228.00  76.00      2.5967    
 228.00  77.00      2.4176    
 228.00  78.00      2.2109    
 228.00  79.00      1.9796    
 228.00  80.00      1.7205    
 228.00  81.00      1.4427    
 228.00  82.00      1.1435    
 228.00  83.00     0.83207    
 228.00  84.00     0.51263    
 228.00  85.00     0.19099    
 228.00  86.00    -0.12603    
 228.00  87.00    -0.43031    
 228.00  88.00    -0.71739    
 228.00  89.00    -0.97115    
 229.00 -89.00     0.13356    
 229.00 -88.00    -0.16300    
 229.00 -87.00    -0.45975    
 229.00 -86.00    -0.74226    
 229.00 -85.00    -0.99649    
 229.00 -84.00     -1.2129    
 229.00 -83.00     -1.3812    
 229.00 -82.00     -1.4816    
 229.00 -81.00     -1.5217    
 229.00 -80.00     -1.5021    
 229.00 -79.00     -1.4227    
 229.00 -78.00     -1.2970    
 229.00 -77.00     -1.1338    
 229.00 -76.00    -0.95341    
 229.00 -75.00    -0.77161    
 229.00 -74.00    -0.60197    
 229.00 -73.00    -0.46364    
 229.00 -72.00    -0.36541    
 229.00 -71.00    -0.31649    
 229.00 -70.00    -0.32112    
 229.00 -69.00    -0.37790    
 229.00 -68.00    -0.48168    
 229.00 -67.00    -0.62434    
 229.00 -66.00    -0.79405    
 229.00 -65.00    -0.97657    
 229.00 -64.00     -1.1609    
 229.00 -63.00     -1.3341    
 229.00 -62.00     -1.4866    
 229.00 -61.00     -1.6109    
 229.00 -60.00     -1.7038    
 229.00 -59.00     -1.7650    
 229.00 -58.00     -1.7977    
 229.00 -57.00     -1.8063    
 229.00 -56.00     -1.7983    
 229.00 -55.00     -1.7802    
 229.00 -54.00     -1.7592    
 229.00 -53.00     -1.7404    
 229.00 -52.00     -1.7273    
 229.00 -51.00     -1.7210    
 229.00 -50.00     -1.7201    
 229.00 -49.00     -1.7212    
 229.00 -48.00     -1.7194    
 229.00 -47.00     -1.7091    
 229.00 -46.00     -1.6848    
 229.00 -45.00     -1.6421    
 229.00 -44.00     -1.5784    
 229.00 -43.00     -1.4934    
 229.00 -42.00     -1.3893    
 229.00 -41.00     -1.2711    
 229.00 -40.00     -1.1458    
 229.00 -39.00     -1.0221    
 229.00 -38.00    -0.90931    
 229.00 -37.00    -0.81677    
 229.00 -36.00    -0.75255    
 229.00 -35.00    -0.72281    
 229.00 -34.00    -0.73106    
 229.00 -33.00    -0.77778    
 229.00 -32.00    -0.86032    
 229.00 -31.00    -0.97310    
 229.00 -30.00     -1.1080    
 229.00 -29.00     -1.2553    
 229.00 -28.00     -1.4042    
 229.00 -27.00     -1.5437    
 229.00 -26.00     -1.6638    
 229.00 -25.00     -1.7560    
 229.00 -24.00     -1.8137    
 229.00 -23.00     -1.8325    
 229.00 -22.00     -1.8108    
 229.00 -21.00     -1.7489    
 229.00 -20.00     -1.6492    
 229.00 -19.00     -1.5155    
 229.00 -18.00     -1.3527    
 229.00 -17.00     -1.1662    
 229.00 -16.00    -0.96157    
 229.00 -15.00    -0.74417    
 229.00 -14.00    -0.51908    
 229.00 -13.00    -0.29103    
 229.00 -12.00    -0.64510E-01
 229.00 -11.00     0.15615    
 229.00 -10.00     0.36664    
 229.00  -9.00     0.56253    
 229.00  -8.00     0.73936    
 229.00  -7.00     0.89273    
 229.00  -6.00      1.0186    
 229.00  -5.00      1.1135    
 229.00  -4.00      1.1753    
 229.00  -3.00      1.2035    
 229.00  -2.00      1.1996    
 229.00  -1.00      1.1676    
 229.00   0.00      1.1137    
 229.00   1.00      1.0468    
 229.00   2.00     0.97750    
 229.00   3.00     0.91762    
 229.00   4.00     0.87940    
 229.00   5.00     0.87434    
 229.00   6.00     0.91211    
 229.00   7.00     0.99950    
 229.00   8.00      1.1395    
 229.00   9.00      1.3309    
 229.00  10.00      1.5676    
 229.00  11.00      1.8393    
 229.00  12.00      2.1318    
 229.00  13.00      2.4282    
 229.00  14.00      2.7099    
 229.00  15.00      2.9586    
 229.00  16.00      3.1572    
 229.00  17.00      3.2922    
 229.00  18.00      3.3540    
 229.00  19.00      3.3387    
 229.00  20.00      3.2478    
 229.00  21.00      3.0885    
 229.00  22.00      2.8727    
 229.00  23.00      2.6166    
 229.00  24.00      2.3385    
 229.00  25.00      2.0574    
 229.00  26.00      1.7912    
 229.00  27.00      1.5551    
 229.00  28.00      1.3600    
 229.00  29.00      1.2117    
 229.00  30.00      1.1102    
 229.00  31.00      1.0498    
 229.00  32.00      1.0197    
 229.00  33.00      1.0052    
 229.00  34.00     0.98904    
 229.00  35.00     0.95330    
 229.00  36.00     0.88110    
 229.00  37.00     0.75835    
 229.00  38.00     0.57527    
 229.00  39.00     0.32743    
 229.00  40.00     0.16362E-01
 229.00  41.00    -0.35040    
 229.00  42.00    -0.75977    
 229.00  43.00     -1.1941    
 229.00  44.00     -1.6325    
 229.00  45.00     -2.0525    
 229.00  46.00     -2.4316    
 229.00  47.00     -2.7490    
 229.00  48.00     -2.9872    
 229.00  49.00     -3.1331    
 229.00  50.00     -3.1784    
 229.00  51.00     -3.1207    
 229.00  52.00     -2.9626    
 229.00  53.00     -2.7118    
 229.00  54.00     -2.3799    
 229.00  55.00     -1.9819    
 229.00  56.00     -1.5343    
 229.00  57.00     -1.0546    
 229.00  58.00    -0.55942    
 229.00  59.00    -0.65617E-01
 229.00  60.00     0.41436    
 229.00  61.00     0.86808    
 229.00  62.00      1.2871    
 229.00  63.00      1.6650    
 229.00  64.00      1.9974    
 229.00  65.00      2.2829    
 229.00  66.00      2.5208    
 229.00  67.00      2.7113    
 229.00  68.00      2.8574    
 229.00  69.00      2.9598    
 229.00  70.00      3.0203    
 229.00  71.00      3.0419    
 229.00  72.00      3.0255    
 229.00  73.00      2.9734    
 229.00  74.00      2.8855    
 229.00  75.00      2.7676    
 229.00  76.00      2.6183    
 229.00  77.00      2.4383    
 229.00  78.00      2.2313    
 229.00  79.00      2.0002    
 229.00  80.00      1.7418    
 229.00  81.00      1.4647    
 229.00  82.00      1.1663    
 229.00  83.00     0.85482    
 229.00  84.00     0.53415    
 229.00  85.00     0.21169    
 229.00  86.00    -0.10800    
 229.00  87.00    -0.41591    
 229.00  88.00    -0.70769    
 229.00  89.00    -0.96633    
 230.00 -89.00     0.13366    
 230.00 -88.00    -0.16323    
 230.00 -87.00    -0.46092    
 230.00 -86.00    -0.74456    
 230.00 -85.00     -1.0013    
 230.00 -84.00     -1.2204    
 230.00 -83.00     -1.3915    
 230.00 -82.00     -1.4955    
 230.00 -81.00     -1.5388    
 230.00 -80.00     -1.5220    
 230.00 -79.00     -1.4450    
 230.00 -78.00     -1.3201    
 230.00 -77.00     -1.1566    
 230.00 -76.00    -0.97373    
 230.00 -75.00    -0.78690    
 230.00 -74.00    -0.60992    
 230.00 -73.00    -0.46147    
 230.00 -72.00    -0.35070    
 230.00 -71.00    -0.28739    
 230.00 -70.00    -0.27576    
 230.00 -69.00    -0.31567    
 230.00 -68.00    -0.40293    
 230.00 -67.00    -0.53064    
 230.00 -66.00    -0.68814    
 230.00 -65.00    -0.86252    
 230.00 -64.00     -1.0437    
 230.00 -63.00     -1.2196    
 230.00 -62.00     -1.3812    
 230.00 -61.00     -1.5211    
 230.00 -60.00     -1.6357    
 230.00 -59.00     -1.7240    
 230.00 -58.00     -1.7879    
 230.00 -57.00     -1.8305    
 230.00 -56.00     -1.8574    
 230.00 -55.00     -1.8733    
 230.00 -54.00     -1.8837    
 230.00 -53.00     -1.8919    
 230.00 -52.00     -1.9003    
 230.00 -51.00     -1.9089    
 230.00 -50.00     -1.9160    
 230.00 -49.00     -1.9182    
 230.00 -48.00     -1.9112    
 230.00 -47.00     -1.8902    
 230.00 -46.00     -1.8510    
 230.00 -45.00     -1.7908    
 230.00 -44.00     -1.7082    
 230.00 -43.00     -1.6046    
 230.00 -42.00     -1.4834    
 230.00 -41.00     -1.3504    
 230.00 -40.00     -1.2133    
 230.00 -39.00     -1.0810    
 230.00 -38.00    -0.96281    
 230.00 -37.00    -0.86753    
 230.00 -36.00    -0.80263    
 230.00 -35.00    -0.77352    
 230.00 -34.00    -0.78295    
 230.00 -33.00    -0.83075    
 230.00 -32.00    -0.91376    
 230.00 -31.00     -1.0261    
 230.00 -30.00     -1.1597    
 230.00 -29.00     -1.3050    
 230.00 -28.00     -1.4515    
 230.00 -27.00     -1.5890    
 230.00 -26.00     -1.7079    
 230.00 -25.00     -1.8001    
 230.00 -24.00     -1.8596    
 230.00 -23.00     -1.8823    
 230.00 -22.00     -1.8663    
 230.00 -21.00     -1.8118    
 230.00 -20.00     -1.7207    
 230.00 -19.00     -1.5962    
 230.00 -18.00     -1.4425    
 230.00 -17.00     -1.2641    
 230.00 -16.00     -1.0660    
 230.00 -15.00    -0.85298    
 230.00 -14.00    -0.62976    
 230.00 -13.00    -0.40099    
 230.00 -12.00    -0.17128    
 230.00 -11.00     0.54652E-01
 230.00 -10.00     0.27193    
 230.00  -9.00     0.47549    
 230.00  -8.00     0.66014    
 230.00  -7.00     0.82080    
 230.00  -6.00     0.95281    
 230.00  -5.00      1.0524    
 230.00  -4.00      1.1171    
 230.00  -3.00      1.1462    
 230.00  -2.00      1.1414    
 230.00  -1.00      1.1066    
 230.00   0.00      1.0484    
 230.00   1.00     0.97563    
 230.00   2.00     0.89890    
 230.00   3.00     0.83002    
 230.00   4.00     0.78097    
 230.00   5.00     0.76292    
 230.00   6.00     0.78518    
 230.00   7.00     0.85418    
 230.00   8.00     0.97272    
 230.00   9.00      1.1394    
 230.00  10.00      1.3487    
 230.00  11.00      1.5908    
 230.00  12.00      1.8526    
 230.00  13.00      2.1185    
 230.00  14.00      2.3719    
 230.00  15.00      2.5961    
 230.00  16.00      2.7763    
 230.00  17.00      2.9006    
 230.00  18.00      2.9611    
 230.00  19.00      2.9548    
 230.00  20.00      2.8836    
 230.00  21.00      2.7540    
 230.00  22.00      2.5770    
 230.00  23.00      2.3666    
 230.00  24.00      2.1383    
 230.00  25.00      1.9080    
 230.00  26.00      1.6902    
 230.00  27.00      1.4967    
 230.00  28.00      1.3353    
 230.00  29.00      1.2093    
 230.00  30.00      1.1169    
 230.00  31.00      1.0520    
 230.00  32.00      1.0041    
 230.00  33.00     0.96014    
 230.00  34.00     0.90550    
 230.00  35.00     0.82560    
 230.00  36.00     0.70754    
 230.00  37.00     0.54146    
 230.00  38.00     0.32167    
 230.00  39.00     0.47422E-01
 230.00  40.00    -0.27682    
 230.00  41.00    -0.64154    
 230.00  42.00     -1.0329    
 230.00  43.00     -1.4335    
 230.00  44.00     -1.8240    
 230.00  45.00     -2.1844    
 230.00  46.00     -2.4957    
 230.00  47.00     -2.7408    
 230.00  48.00     -2.9064    
 230.00  49.00     -2.9832    
 230.00  50.00     -2.9665    
 230.00  51.00     -2.8568    
 230.00  52.00     -2.6587    
 230.00  53.00     -2.3812    
 230.00  54.00     -2.0360    
 230.00  55.00     -1.6374    
 230.00  56.00     -1.2005    
 230.00  57.00    -0.74075    
 230.00  58.00    -0.27245    
 230.00  59.00     0.19006    
 230.00  60.00     0.63671    
 230.00  61.00      1.0572    
 230.00  62.00      1.4448    
 230.00  63.00      1.7943    
 230.00  64.00      2.1023    
 230.00  65.00      2.3675    
 230.00  66.00      2.5891    
 230.00  67.00      2.7671    
 230.00  68.00      2.9035    
 230.00  69.00      2.9988    
 230.00  70.00      3.0540    
 230.00  71.00      3.0714    
 230.00  72.00      3.0516    
 230.00  73.00      2.9968    
 230.00  74.00      2.9066    
 230.00  75.00      2.7869    
 230.00  76.00      2.6363    
 230.00  77.00      2.4558    
 230.00  78.00      2.2488    
 230.00  79.00      2.0184    
 230.00  80.00      1.7611    
 230.00  81.00      1.4850    
 230.00  82.00      1.1879    
 230.00  83.00     0.87668    
 230.00  84.00     0.55512    
 230.00  85.00     0.23192    
 230.00  86.00    -0.90314E-01
 230.00  87.00    -0.40181    
 230.00  88.00    -0.69813    
 230.00  89.00    -0.96157    
 231.00 -89.00     0.13386    
 231.00 -88.00    -0.16325    
 231.00 -87.00    -0.46172    
 231.00 -86.00    -0.74638    
 231.00 -85.00     -1.0055    
 231.00 -84.00     -1.2271    
 231.00 -83.00     -1.4009    
 231.00 -82.00     -1.5087    
 231.00 -81.00     -1.5555    
 231.00 -80.00     -1.5418    
 231.00 -79.00     -1.4675    
 231.00 -78.00     -1.3440    
 231.00 -77.00     -1.1806    
 231.00 -76.00    -0.99599    
 231.00 -75.00    -0.80467    
 231.00 -74.00    -0.62090    
 231.00 -73.00    -0.46279    
 231.00 -72.00    -0.33986    
 231.00 -71.00    -0.26242    
 231.00 -70.00    -0.23468    
 231.00 -69.00    -0.25774    
 231.00 -68.00    -0.32841    
 231.00 -67.00    -0.44097    
 231.00 -66.00    -0.58601    
 231.00 -65.00    -0.75200    
 231.00 -64.00    -0.92968    
 231.00 -63.00     -1.1080    
 231.00 -62.00     -1.2784    
 231.00 -61.00     -1.4336    
 231.00 -60.00     -1.5696    
 231.00 -59.00     -1.6846    
 231.00 -58.00     -1.7794    
 231.00 -57.00     -1.8555    
 231.00 -56.00     -1.9167    
 231.00 -55.00     -1.9660    
 231.00 -54.00     -2.0071    
 231.00 -53.00     -2.0414    
 231.00 -52.00     -2.0704    
 231.00 -51.00     -2.0932    
 231.00 -50.00     -2.1075    
 231.00 -49.00     -2.1101    
 231.00 -48.00     -2.0974    
 231.00 -47.00     -2.0657    
 231.00 -46.00     -2.0121    
 231.00 -45.00     -1.9350    
 231.00 -44.00     -1.8351    
 231.00 -43.00     -1.7148    
 231.00 -42.00     -1.5788    
 231.00 -41.00     -1.4339    
 231.00 -40.00     -1.2883    
 231.00 -39.00     -1.1510    
 231.00 -38.00     -1.0309    
 231.00 -37.00    -0.93635    
 231.00 -36.00    -0.87394    
 231.00 -35.00    -0.84818    
 231.00 -34.00    -0.86091    
 231.00 -33.00    -0.91117    
 231.00 -32.00    -0.99522    
 231.00 -31.00     -1.1069    
 231.00 -30.00     -1.2381    
 231.00 -29.00     -1.3796    
 231.00 -28.00     -1.5213    
 231.00 -27.00     -1.6538    
 231.00 -26.00     -1.7683    
 231.00 -25.00     -1.8574    
 231.00 -24.00     -1.9157    
 231.00 -23.00     -1.9395    
 231.00 -22.00     -1.9273    
 231.00 -21.00     -1.8789    
 231.00 -20.00     -1.7961    
 231.00 -19.00     -1.6815    
 231.00 -18.00     -1.5384    
 231.00 -17.00     -1.3707    
 231.00 -16.00     -1.1824    
 231.00 -15.00    -0.97775    
 231.00 -14.00    -0.76086    
 231.00 -13.00    -0.53608    
 231.00 -12.00    -0.30794    
 231.00 -11.00    -0.81312E-01
 231.00 -10.00     0.13859    
 231.00  -9.00     0.34619    
 231.00  -8.00     0.53574    
 231.00  -7.00     0.70154    
 231.00  -6.00     0.83838    
 231.00  -5.00     0.94200    
 231.00  -4.00      1.0096    
 231.00  -3.00      1.0402    
 231.00  -2.00      1.0354    
 231.00  -1.00     0.99896    
 231.00   0.00     0.93746    
 231.00   1.00     0.85961    
 231.00   2.00     0.77594    
 231.00   3.00     0.69798    
 231.00   4.00     0.63745    
 231.00   5.00     0.60517    
 231.00   6.00     0.61009    
 231.00   7.00     0.65840    
 231.00   8.00     0.75279    
 231.00   9.00     0.89207    
 231.00  10.00      1.0711    
 231.00  11.00      1.2810    
 231.00  12.00      1.5098    
 231.00  13.00      1.7437    
 231.00  14.00      1.9676    
 231.00  15.00      2.1672    
 231.00  16.00      2.3294    
 231.00  17.00      2.4441    
 231.00  18.00      2.5050    
 231.00  19.00      2.5097    
 231.00  20.00      2.4603    
 231.00  21.00      2.3627    
 231.00  22.00      2.2266    
 231.00  23.00      2.0635    
 231.00  24.00      1.8863    
 231.00  25.00      1.7076    
 231.00  26.00      1.5385    
 231.00  27.00      1.3874    
 231.00  28.00      1.2591    
 231.00  29.00      1.1548    
 231.00  30.00      1.0711    
 231.00  31.00      1.0016    
 231.00  32.00     0.93656    
 231.00  33.00     0.86470    
 231.00  34.00     0.77416    
 231.00  35.00     0.65391    
 231.00  36.00     0.49508    
 231.00  37.00     0.29196    
 231.00  38.00     0.42862E-01
 231.00  39.00    -0.24949    
 231.00  40.00    -0.57797    
 231.00  41.00    -0.93143    
 231.00  42.00     -1.2955    
 231.00  43.00     -1.6536    
 231.00  44.00     -1.9882    
 231.00  45.00     -2.2822    
 231.00  46.00     -2.5200    
 231.00  47.00     -2.6887    
 231.00  48.00     -2.7790    
 231.00  49.00     -2.7856    
 231.00  50.00     -2.7074    
 231.00  51.00     -2.5475    
 231.00  52.00     -2.3125    
 231.00  53.00     -2.0121    
 231.00  54.00     -1.6580    
 231.00  55.00     -1.2637    
 231.00  56.00    -0.84244    
 231.00  57.00    -0.40755    
 231.00  58.00     0.29267E-01
 231.00  59.00     0.45636    
 231.00  60.00     0.86605    
 231.00  61.00      1.2502    
 231.00  62.00      1.6039    
 231.00  63.00      1.9232    
 231.00  64.00      2.2051    
 231.00  65.00      2.4490    
 231.00  66.00      2.6537    
 231.00  67.00      2.8185    
 231.00  68.00      2.9450    
 231.00  69.00      3.0331    
 231.00  70.00      3.0829    
 231.00  71.00      3.0962    
 231.00  72.00      3.0731    
 231.00  73.00      3.0158    
 231.00  74.00      2.9236    
 231.00  75.00      2.8023    
 231.00  76.00      2.6508    
 231.00  77.00      2.4702    
 231.00  78.00      2.2636    
 231.00  79.00      2.0342    
 231.00  80.00      1.7785    
 231.00  81.00      1.5037    
 231.00  82.00      1.2082    
 231.00  83.00     0.89769    
 231.00  84.00     0.57559    
 231.00  85.00     0.25169    
 231.00  86.00    -0.72972E-01
 231.00  87.00    -0.38799    
 231.00  88.00    -0.68871    
 231.00  89.00    -0.95688    
 232.00 -89.00     0.13414    
 232.00 -88.00    -0.16306    
 232.00 -87.00    -0.46214    
 232.00 -86.00    -0.74772    
 232.00 -85.00     -1.0092    
 232.00 -84.00     -1.2331    
 232.00 -83.00     -1.4093    
 232.00 -82.00     -1.5213    
 232.00 -81.00     -1.5718    
 232.00 -80.00     -1.5613    
 232.00 -79.00     -1.4902    
 232.00 -78.00     -1.3685    
 232.00 -77.00     -1.2058    
 232.00 -76.00     -1.0200    
 232.00 -75.00    -0.82472    
 232.00 -74.00    -0.63473    
 232.00 -73.00    -0.46746    
 232.00 -72.00    -0.33281    
 232.00 -71.00    -0.24158    
 232.00 -70.00    -0.19796    
 232.00 -69.00    -0.20430    
 232.00 -68.00    -0.25841    
 232.00 -67.00    -0.35577    
 232.00 -66.00    -0.48820    
 232.00 -65.00    -0.64559    
 232.00 -64.00    -0.81953    
 232.00 -63.00     -1.0001    
 232.00 -62.00     -1.1789    
 232.00 -61.00     -1.3490    
 232.00 -60.00     -1.5060    
 232.00 -59.00     -1.6474    
 232.00 -58.00     -1.7726    
 232.00 -57.00     -1.8816    
 232.00 -56.00     -1.9765    
 232.00 -55.00     -2.0584    
 232.00 -54.00     -2.1292    
 232.00 -53.00     -2.1889    
 232.00 -52.00     -2.2376    
 232.00 -51.00     -2.2735    
 232.00 -50.00     -2.2942    
 232.00 -49.00     -2.2968    
 232.00 -48.00     -2.2782    
 232.00 -47.00     -2.2358    
 232.00 -46.00     -2.1682    
 232.00 -45.00     -2.0755    
 232.00 -44.00     -1.9597    
 232.00 -43.00     -1.8248    
 232.00 -42.00     -1.6769    
 232.00 -41.00     -1.5233    
 232.00 -40.00     -1.3727    
 232.00 -39.00     -1.2341    
 232.00 -38.00     -1.1160    
 232.00 -37.00     -1.0259    
 232.00 -36.00    -0.96954    
 232.00 -35.00    -0.95028    
 232.00 -34.00    -0.96891    
 232.00 -33.00     -1.0236    
 232.00 -32.00     -1.1098    
 232.00 -31.00     -1.2212    
 232.00 -30.00     -1.3497    
 232.00 -29.00     -1.4861    
 232.00 -28.00     -1.6214    
 232.00 -27.00     -1.7466    
 232.00 -26.00     -1.8540    
 232.00 -25.00     -1.9373    
 232.00 -24.00     -1.9918    
 232.00 -23.00     -2.0144    
 232.00 -22.00     -2.0039    
 232.00 -21.00     -1.9605    
 232.00 -20.00     -1.8854    
 232.00 -19.00     -1.7808    
 232.00 -18.00     -1.6494    
 232.00 -17.00     -1.4942    
 232.00 -16.00     -1.3183    
 232.00 -15.00     -1.1251    
 232.00 -14.00    -0.91807    
 232.00 -13.00    -0.70099    
 232.00 -12.00    -0.47813    
 232.00 -11.00    -0.25429    
 232.00 -10.00    -0.34861E-01
 232.00  -9.00     0.17425    
 232.00  -8.00     0.36683    
 232.00  -7.00     0.53665    
 232.00  -6.00     0.67796    
 232.00  -5.00     0.78600    
 232.00  -4.00     0.85748    
 232.00  -3.00     0.89116    
 232.00  -2.00     0.88815    
 232.00  -1.00     0.85212    
 232.00   0.00     0.78930    
 232.00   1.00     0.70816    
 232.00   2.00     0.61893    
 232.00   3.00     0.53280    
 232.00   4.00     0.46110    
 232.00   5.00     0.41428    
 232.00   6.00     0.40096    
 232.00   7.00     0.42714    
 232.00   8.00     0.49554    
 232.00   9.00     0.60526    
 232.00  10.00     0.75176    
 232.00  11.00     0.92721    
 232.00  12.00      1.1211    
 232.00  13.00      1.3211    
 232.00  14.00      1.5144    
 232.00  15.00      1.6883    
 232.00  16.00      1.8320    
 232.00  17.00      1.9372    
 232.00  18.00      1.9986    
 232.00  19.00      2.0146    
 232.00  20.00      1.9875    
 232.00  21.00      1.9223    
 232.00  22.00      1.8271    
 232.00  23.00      1.7111    
 232.00  24.00      1.5845    
 232.00  25.00      1.4566    
 232.00  26.00      1.3351    
 232.00  27.00      1.2251    
 232.00  28.00      1.1288    
 232.00  29.00      1.0452    
 232.00  30.00     0.96982    
 232.00  31.00     0.89597    
 232.00  32.00     0.81498    
 232.00  33.00     0.71750    
 232.00  34.00     0.59457    
 232.00  35.00     0.43878    
 232.00  36.00     0.24520    
 232.00  37.00     0.12211E-01
 232.00  38.00    -0.25808    
 232.00  39.00    -0.55974    
 232.00  40.00    -0.88329    
 232.00  41.00     -1.2163    
 232.00  42.00     -1.5442    
 232.00  43.00     -1.8516    
 232.00  44.00     -2.1231    
 232.00  45.00     -2.3446    
 232.00  46.00     -2.5043    
 232.00  47.00     -2.5935    
 232.00  48.00     -2.6070    
 232.00  49.00     -2.5434    
 232.00  50.00     -2.4050    
 232.00  51.00     -2.1974    
 232.00  52.00     -1.9289    
 232.00  53.00     -1.6098    
 232.00  54.00     -1.2515    
 232.00  55.00    -0.86622    
 232.00  56.00    -0.46535    
 232.00  57.00    -0.59752E-01
 232.00  58.00     0.34150    
 232.00  59.00     0.72962    
 232.00  60.00      1.0993    
 232.00  61.00      1.4447    
 232.00  62.00      1.7625    
 232.00  63.00      2.0500    
 232.00  64.00      2.3050    
 232.00  65.00      2.5267    
 232.00  66.00      2.7140    
 232.00  67.00      2.8655    
 232.00  68.00      2.9819    
 232.00  69.00      3.0628    
 232.00  70.00      3.1072    
 232.00  71.00      3.1165    
 232.00  72.00      3.0902    
 232.00  73.00      3.0305    
 232.00  74.00      2.9365    
 232.00  75.00      2.8140    
 232.00  76.00      2.6618    
 232.00  77.00      2.4815    
 232.00  78.00      2.2756    
 232.00  79.00      2.0476    
 232.00  80.00      1.7939    
 232.00  81.00      1.5208    
 232.00  82.00      1.2273    
 232.00  83.00     0.91786    
 232.00  84.00     0.59559    
 232.00  85.00     0.27099    
 232.00  86.00    -0.55976E-01
 232.00  87.00    -0.37448    
 232.00  88.00    -0.67943    
 232.00  89.00    -0.95225    
 233.00 -89.00     0.13453    
 233.00 -88.00    -0.16265    
 233.00 -87.00    -0.46219    
 233.00 -86.00    -0.74857    
 233.00 -85.00     -1.0122    
 233.00 -84.00     -1.2384    
 233.00 -83.00     -1.4167    
 233.00 -82.00     -1.5332    
 233.00 -81.00     -1.5875    
 233.00 -80.00     -1.5805    
 233.00 -79.00     -1.5129    
 233.00 -78.00     -1.3934    
 233.00 -77.00     -1.2320    
 233.00 -76.00     -1.0455    
 233.00 -75.00    -0.84685    
 233.00 -74.00    -0.65121    
 233.00 -73.00    -0.47533    
 233.00 -72.00    -0.32944    
 233.00 -71.00    -0.22483    
 233.00 -70.00    -0.16566    
 233.00 -69.00    -0.15552    
 233.00 -68.00    -0.19321    
 233.00 -67.00    -0.27539    
 233.00 -66.00    -0.39515    
 233.00 -65.00    -0.54386    
 233.00 -64.00    -0.71386    
 233.00 -63.00    -0.89629    
 233.00 -62.00     -1.0833    
 233.00 -61.00     -1.2679    
 233.00 -60.00     -1.4455    
 233.00 -59.00     -1.6127    
 233.00 -58.00     -1.7676    
 233.00 -57.00     -1.9089    
 233.00 -56.00     -2.0366    
 233.00 -55.00     -2.1503    
 233.00 -54.00     -2.2499    
 233.00 -53.00     -2.3339    
 233.00 -52.00     -2.4013    
 233.00 -51.00     -2.4496    
 233.00 -50.00     -2.4760    
 233.00 -49.00     -2.4780    
 233.00 -48.00     -2.4533    
 233.00 -47.00     -2.4004    
 233.00 -46.00     -2.3195    
 233.00 -45.00     -2.2123    
 233.00 -44.00     -2.0824    
 233.00 -43.00     -1.9353    
 233.00 -42.00     -1.7780    
 233.00 -41.00     -1.6189    
 233.00 -40.00     -1.4669    
 233.00 -39.00     -1.3307    
 233.00 -38.00     -1.2186    
 233.00 -37.00     -1.1369    
 233.00 -36.00     -1.0903    
 233.00 -35.00     -1.0809    
 233.00 -34.00     -1.1083    
 233.00 -33.00     -1.1696    
 233.00 -32.00     -1.2598    
 233.00 -31.00     -1.3718    
 233.00 -30.00     -1.4976    
 233.00 -29.00     -1.6286    
 233.00 -28.00     -1.7562    
 233.00 -27.00     -1.8726    
 233.00 -26.00     -1.9710    
 233.00 -25.00     -2.0463    
 233.00 -24.00     -2.0948    
 233.00 -23.00     -2.1142    
 233.00 -22.00     -2.1039    
 233.00 -21.00     -2.0641    
 233.00 -20.00     -1.9961    
 233.00 -19.00     -1.9016    
 233.00 -18.00     -1.7825    
 233.00 -17.00     -1.6410    
 233.00 -16.00     -1.4793    
 233.00 -15.00     -1.2997    
 233.00 -14.00     -1.1050    
 233.00 -13.00    -0.89826    
 233.00 -12.00    -0.68324    
 233.00 -11.00    -0.46452    
 233.00 -10.00    -0.24750    
 233.00  -9.00    -0.38259E-01
 233.00  -8.00     0.15661    
 233.00  -7.00     0.33042    
 233.00  -6.00     0.47690    
 233.00  -5.00     0.59072    
 233.00  -4.00     0.66809    
 233.00  -3.00     0.70726    
 233.00  -2.00     0.70887    
 233.00  -1.00     0.67617    
 233.00   0.00     0.61495    
 233.00   1.00     0.53324    
 233.00   2.00     0.44081    
 233.00   3.00     0.34839    
 233.00   4.00     0.26683    
 233.00   5.00     0.20615    
 233.00   6.00     0.17468    
 233.00   7.00     0.17825    
 233.00   8.00     0.21966    
 233.00   9.00     0.29843    
 233.00  10.00     0.41077    
 233.00  11.00     0.54998    
 233.00  12.00     0.70703    
 233.00  13.00     0.87145    
 233.00  14.00      1.0323    
 233.00  15.00      1.1791    
 233.00  16.00      1.3029    
 233.00  17.00      1.3971    
 233.00  18.00      1.4577    
 233.00  19.00      1.4838    
 233.00  20.00      1.4774    
 233.00  21.00      1.4430    
 233.00  22.00      1.3868    
 233.00  23.00      1.3159    
 233.00  24.00      1.2375    
 233.00  25.00      1.1579    
 233.00  26.00      1.0814    
 233.00  27.00      1.0103    
 233.00  28.00     0.94412    
 233.00  29.00     0.87982    
 233.00  30.00     0.81223    
 233.00  31.00     0.73454    
 233.00  32.00     0.63925    
 233.00  33.00     0.51911    
 233.00  34.00     0.36810    
 233.00  35.00     0.18235    
 233.00  36.00    -0.39177E-01
 233.00  37.00    -0.29422    
 233.00  38.00    -0.57714    
 233.00  39.00    -0.87909    
 233.00  40.00     -1.1886    
 233.00  41.00     -1.4922    
 233.00  42.00     -1.7757    
 233.00  43.00     -2.0249    
 233.00  44.00     -2.2269    
 233.00  45.00     -2.3711    
 233.00  46.00     -2.4493    
 233.00  47.00     -2.4571    
 233.00  48.00     -2.3934    
 233.00  49.00     -2.2606    
 233.00  50.00     -2.0642    
 233.00  51.00     -1.8121    
 233.00  52.00     -1.5140    
 233.00  53.00     -1.1806    
 233.00  54.00    -0.82266    
 233.00  55.00    -0.45096    
 233.00  56.00    -0.74787E-01
 233.00  57.00     0.29756    
 233.00  58.00     0.65975    
 233.00  59.00      1.0060    
 233.00  60.00      1.3333    
 233.00  61.00      1.6381    
 233.00  62.00      1.9186    
 233.00  63.00      2.1734    
 233.00  64.00      2.4008    
 233.00  65.00      2.6001    
 233.00  66.00      2.7697    
 233.00  67.00      2.9079    
 233.00  68.00      3.0142    
 233.00  69.00      3.0878    
 233.00  70.00      3.1270    
 233.00  71.00      3.1322    
 233.00  72.00      3.1029    
 233.00  73.00      3.0410    
 233.00  74.00      2.9455    
 233.00  75.00      2.8218    
 233.00  76.00      2.6694    
 233.00  77.00      2.4897    
 233.00  78.00      2.2849    
 233.00  79.00      2.0587    
 233.00  80.00      1.8074    
 233.00  81.00      1.5364    
 233.00  82.00      1.2451    
 233.00  83.00     0.93723    
 233.00  84.00     0.61514    
 233.00  85.00     0.28983    
 233.00  86.00    -0.39328E-01
 233.00  87.00    -0.36127    
 233.00  88.00    -0.67029    
 233.00  89.00    -0.94769    
 234.00 -89.00     0.13501    
 234.00 -88.00    -0.16203    
 234.00 -87.00    -0.46186    
 234.00 -86.00    -0.74895    
 234.00 -85.00     -1.0146    
 234.00 -84.00     -1.2429    
 234.00 -83.00     -1.4231    
 234.00 -82.00     -1.5443    
 234.00 -81.00     -1.6026    
 234.00 -80.00     -1.5992    
 234.00 -79.00     -1.5354    
 234.00 -78.00     -1.4185    
 234.00 -77.00     -1.2589    
 234.00 -76.00     -1.0722    
 234.00 -75.00    -0.87081    
 234.00 -74.00    -0.67012    
 234.00 -73.00    -0.48620    
 234.00 -72.00    -0.32961    
 234.00 -71.00    -0.21210    
 234.00 -70.00    -0.13780    
 234.00 -69.00    -0.11150    
 234.00 -68.00    -0.13302    
 234.00 -67.00    -0.20017    
 234.00 -66.00    -0.30729    
 234.00 -65.00    -0.44727    
 234.00 -64.00    -0.61319    
 234.00 -63.00    -0.79727    
 234.00 -62.00    -0.99212    
 234.00 -61.00     -1.1908    
 234.00 -60.00     -1.3885    
 234.00 -59.00     -1.5808    
 234.00 -58.00     -1.7647    
 234.00 -57.00     -1.9373    
 234.00 -56.00     -2.0970    
 234.00 -55.00     -2.2414    
 234.00 -54.00     -2.3687    
 234.00 -53.00     -2.4761    
 234.00 -52.00     -2.5612    
 234.00 -51.00     -2.6209    
 234.00 -50.00     -2.6524    
 234.00 -49.00     -2.6533    
 234.00 -48.00     -2.6223    
 234.00 -47.00     -2.5593    
 234.00 -46.00     -2.4659    
 234.00 -45.00     -2.3453    
 234.00 -44.00     -2.2029    
 234.00 -43.00     -2.0457    
 234.00 -42.00     -1.8817    
 234.00 -41.00     -1.7202    
 234.00 -40.00     -1.5701    
 234.00 -39.00     -1.4401    
 234.00 -38.00     -1.3376    
 234.00 -37.00     -1.2680    
 234.00 -36.00     -1.2347    
 234.00 -35.00     -1.2385    
 234.00 -34.00     -1.2776    
 234.00 -33.00     -1.3481    
 234.00 -32.00     -1.4440    
 234.00 -31.00     -1.5579    
 234.00 -30.00     -1.6818    
 234.00 -29.00     -1.8073    
 234.00 -28.00     -1.9268    
 234.00 -27.00     -2.0335    
 234.00 -26.00     -2.1217    
 234.00 -25.00     -2.1875    
 234.00 -24.00     -2.2284    
 234.00 -23.00     -2.2431    
 234.00 -22.00     -2.2316    
 234.00 -21.00     -2.1944    
 234.00 -20.00     -2.1328    
 234.00 -19.00     -2.0481    
 234.00 -18.00     -1.9416    
 234.00 -17.00     -1.8145    
 234.00 -16.00     -1.6680    
 234.00 -15.00     -1.5035    
 234.00 -14.00     -1.3227    
 234.00 -13.00     -1.1279    
 234.00 -12.00    -0.92218    
 234.00 -11.00    -0.70980    
 234.00 -10.00    -0.49599    
 234.00  -9.00    -0.28693    
 234.00  -8.00    -0.89467E-01
 234.00  -7.00     0.89302E-01
 234.00  -6.00     0.24257    
 234.00  -5.00     0.36444    
 234.00  -4.00     0.45052    
 234.00  -3.00     0.49843    
 234.00  -2.00     0.50824    
 234.00  -1.00     0.48259    
 234.00   0.00     0.42667    
 234.00   1.00     0.34793    
 234.00   2.00     0.25552    
 234.00   3.00     0.15959    
 234.00   4.00     0.70415E-01
 234.00   5.00    -0.24444E-02
 234.00   6.00    -0.51018E-01
 234.00   7.00    -0.69603E-01
 234.00   8.00    -0.55258E-01
 234.00   9.00    -0.80169E-02
 234.00  10.00     0.69175E-01
 234.00  11.00     0.17082    
 234.00  12.00     0.28945    
 234.00  13.00     0.41645    
 234.00  14.00     0.54288    
 234.00  15.00     0.66040    
 234.00  16.00     0.76203    
 234.00  17.00     0.84274    
 234.00  18.00     0.89984    
 234.00  19.00     0.93303    
 234.00  20.00     0.94419    
 234.00  21.00     0.93693    
 234.00  22.00     0.91592    
 234.00  23.00     0.88609    
 234.00  24.00     0.85189    
 234.00  25.00     0.81651    
 234.00  26.00     0.78136    
 234.00  27.00     0.74580    
 234.00  28.00     0.70702    
 234.00  29.00     0.66038    
 234.00  30.00     0.59991    
 234.00  31.00     0.51905    
 234.00  32.00     0.41152    
 234.00  33.00     0.27220    
 234.00  34.00     0.98002E-01
 234.00  35.00    -0.11150    
 234.00  36.00    -0.35364    
 234.00  37.00    -0.62255    
 234.00  38.00    -0.90932    
 234.00  39.00     -1.2025    
 234.00  40.00     -1.4891    
 234.00  41.00     -1.7549    
 234.00  42.00     -1.9864    
 234.00  43.00     -2.1711    
 234.00  44.00     -2.2986    
 234.00  45.00     -2.3616    
 234.00  46.00     -2.3562    
 234.00  47.00     -2.2820    
 234.00  48.00     -2.1419    
 234.00  49.00     -1.9419    
 234.00  50.00     -1.6905    
 234.00  51.00     -1.3977    
 234.00  52.00     -1.0743    
 234.00  53.00    -0.73108    
 234.00  54.00    -0.37802    
 234.00  55.00    -0.24203E-01
 234.00  56.00     0.32336    
 234.00  57.00     0.65907    
 234.00  58.00     0.97937    
 234.00  59.00      1.2815    
 234.00  60.00      1.5647    
 234.00  61.00      1.8277    
 234.00  62.00      2.0704    
 234.00  63.00      2.2920    
 234.00  64.00      2.4917    
 234.00  65.00      2.6685    
 234.00  66.00      2.8205    
 234.00  67.00      2.9454    
 234.00  68.00      3.0419    
 234.00  69.00      3.1082    
 234.00  70.00      3.1423    
 234.00  71.00      3.1436    
 234.00  72.00      3.1114    
 234.00  73.00      3.0474    
 234.00  74.00      2.9505    
 234.00  75.00      2.8261    
 234.00  76.00      2.6736    
 234.00  77.00      2.4949    
 234.00  78.00      2.2916    
 234.00  79.00      2.0675    
 234.00  80.00      1.8191    
 234.00  81.00      1.5505    
 234.00  82.00      1.2618    
 234.00  83.00     0.95580    
 234.00  84.00     0.63424    
 234.00  85.00     0.30820    
 234.00  86.00    -0.23029E-01
 234.00  87.00    -0.34835    
 234.00  88.00    -0.66130    
 234.00  89.00    -0.94321    
 235.00 -89.00     0.13558    
 235.00 -88.00    -0.16120    
 235.00 -87.00    -0.46115    
 235.00 -86.00    -0.74886    
 235.00 -85.00     -1.0164    
 235.00 -84.00     -1.2466    
 235.00 -83.00     -1.4286    
 235.00 -82.00     -1.5546    
 235.00 -81.00     -1.6170    
 235.00 -80.00     -1.6174    
 235.00 -79.00     -1.5576    
 235.00 -78.00     -1.4438    
 235.00 -77.00     -1.2864    
 235.00 -76.00     -1.1000    
 235.00 -75.00    -0.89637    
 235.00 -74.00    -0.69123    
 235.00 -73.00    -0.49987    
 235.00 -72.00    -0.33318    
 235.00 -71.00    -0.20329    
 235.00 -70.00    -0.11435    
 235.00 -69.00    -0.72306E-01
 235.00 -68.00    -0.78005E-01
 235.00 -67.00    -0.13034    
 235.00 -66.00    -0.22495    
 235.00 -65.00    -0.35621    
 235.00 -64.00    -0.51794    
 235.00 -63.00    -0.70343    
 235.00 -62.00    -0.90571    
 235.00 -61.00     -1.1180    
 235.00 -60.00     -1.3351    
 235.00 -59.00     -1.5518    
 235.00 -58.00     -1.7638    
 235.00 -57.00     -1.9668    
 235.00 -56.00     -2.1573    
 235.00 -55.00     -2.3313    
 235.00 -54.00     -2.4852    
 235.00 -53.00     -2.6149    
 235.00 -52.00     -2.7166    
 235.00 -51.00     -2.7869    
 235.00 -50.00     -2.8227    
 235.00 -49.00     -2.8222    
 235.00 -48.00     -2.7849    
 235.00 -47.00     -2.7119    
 235.00 -46.00     -2.6066    
 235.00 -45.00     -2.4738    
 235.00 -44.00     -2.3205    
 235.00 -43.00     -2.1551    
 235.00 -42.00     -1.9869    
 235.00 -41.00     -1.8255    
 235.00 -40.00     -1.6804    
 235.00 -39.00     -1.5597    
 235.00 -38.00     -1.4701    
 235.00 -37.00     -1.4159    
 235.00 -36.00     -1.3992    
 235.00 -35.00     -1.4191    
 235.00 -34.00     -1.4727    
 235.00 -33.00     -1.5547    
 235.00 -32.00     -1.6582    
 235.00 -31.00     -1.7755    
 235.00 -30.00     -1.8984    
 235.00 -29.00     -2.0191    
 235.00 -28.00     -2.1306    
 235.00 -27.00     -2.2272    
 235.00 -26.00     -2.3045    
 235.00 -25.00     -2.3601    
 235.00 -24.00     -2.3924    
 235.00 -23.00     -2.4014    
 235.00 -22.00     -2.3877    
 235.00 -21.00     -2.3525    
 235.00 -20.00     -2.2968    
 235.00 -19.00     -2.2216    
 235.00 -18.00     -2.1276    
 235.00 -17.00     -2.0152    
 235.00 -16.00     -1.8844    
 235.00 -15.00     -1.7356    
 235.00 -14.00     -1.5694    
 235.00 -13.00     -1.3872    
 235.00 -12.00     -1.1913    
 235.00 -11.00    -0.98554    
 235.00 -10.00    -0.77482    
 235.00  -9.00    -0.56532    
 235.00  -8.00    -0.36411    
 235.00  -7.00    -0.17866    
 235.00  -6.00    -0.16282E-01
 235.00  -5.00     0.11652    
 235.00  -4.00     0.21469    
 235.00  -3.00     0.27515    
 235.00  -2.00     0.29724    
 235.00  -1.00     0.28287    
 235.00   0.00     0.23652    
 235.00   1.00     0.16488    
 235.00   2.00     0.76373E-01
 235.00   3.00    -0.19567E-01
 235.00   4.00    -0.11330    
 235.00   5.00    -0.19582    
 235.00   6.00    -0.25954    
 235.00   7.00    -0.29889    
 235.00   8.00    -0.31081    
 235.00   9.00    -0.29483    
 235.00  10.00    -0.25306    
 235.00  11.00    -0.18974    
 235.00  12.00    -0.11074    
 235.00  13.00    -0.22828E-01
 235.00  14.00     0.67112E-01
 235.00  15.00     0.15281    
 235.00  16.00     0.22924    
 235.00  17.00     0.29303    
 235.00  18.00     0.34270    
 235.00  19.00     0.37855    
 235.00  20.00     0.40242    
 235.00  21.00     0.41713    
 235.00  22.00     0.42586    
 235.00  23.00     0.43146    
 235.00  24.00     0.43582    
 235.00  25.00     0.43935    
 235.00  26.00     0.44064    
 235.00  27.00     0.43644    
 235.00  28.00     0.42186    
 235.00  29.00     0.39083    
 235.00  30.00     0.33681    
 235.00  31.00     0.25358    
 235.00  32.00     0.13615    
 235.00  33.00    -0.18446E-01
 235.00  34.00    -0.21050    
 235.00  35.00    -0.43715    
 235.00  36.00    -0.69229    
 235.00  37.00    -0.96671    
 235.00  38.00     -1.2486    
 235.00  39.00     -1.5244    
 235.00  40.00     -1.7797    
 235.00  41.00     -2.0003    
 235.00  42.00     -2.1732    
 235.00  43.00     -2.2880    
 235.00  44.00     -2.3371    
 235.00  45.00     -2.3168    
 235.00  46.00     -2.2271    
 235.00  47.00     -2.0714    
 235.00  48.00     -1.8568    
 235.00  49.00     -1.5927    
 235.00  50.00     -1.2901    
 235.00  51.00    -0.96091    
 235.00  52.00    -0.61678    
 235.00  53.00    -0.26835    
 235.00  54.00     0.75477E-01
 235.00  55.00     0.40749    
 235.00  56.00     0.72307    
 235.00  57.00      1.0194    
 235.00  58.00      1.2957    
 235.00  59.00      1.5522    
 235.00  60.00      1.7904    
 235.00  61.00      2.0112    
 235.00  62.00      2.2158    
 235.00  63.00      2.4045    
 235.00  64.00      2.5766    
 235.00  65.00      2.7313    
 235.00  66.00      2.8662    
 235.00  67.00      2.9782    
 235.00  68.00      3.0649    
 235.00  69.00      3.1243    
 235.00  70.00      3.1533    
 235.00  71.00      3.1508    
 235.00  72.00      3.1158    
 235.00  73.00      3.0499    
 235.00  74.00      2.9518    
 235.00  75.00      2.8268    
 235.00  76.00      2.6746    
 235.00  77.00      2.4972    
 235.00  78.00      2.2957    
 235.00  79.00      2.0742    
 235.00  80.00      1.8289    
 235.00  81.00      1.5630    
 235.00  82.00      1.2773    
 235.00  83.00     0.97359    
 235.00  84.00     0.65291    
 235.00  85.00     0.32610    
 235.00  86.00    -0.70800E-02
 235.00  87.00    -0.33572    
 235.00  88.00    -0.65246    
 235.00  89.00    -0.93880    
 236.00 -89.00     0.13625    
 236.00 -88.00    -0.16015    
 236.00 -87.00    -0.46006    
 236.00 -86.00    -0.74832    
 236.00 -85.00     -1.0176    
 236.00 -84.00     -1.2495    
 236.00 -83.00     -1.4332    
 236.00 -82.00     -1.5639    
 236.00 -81.00     -1.6305    
 236.00 -80.00     -1.6349    
 236.00 -79.00     -1.5794    
 236.00 -78.00     -1.4689    
 236.00 -77.00     -1.3141    
 236.00 -76.00     -1.1285    
 236.00 -75.00    -0.92326    
 236.00 -74.00    -0.71429    
 236.00 -73.00    -0.51611    
 236.00 -72.00    -0.33994    
 236.00 -71.00    -0.19825    
 236.00 -70.00    -0.95257E-01
 236.00 -69.00    -0.37972E-01
 236.00 -68.00    -0.28270E-01
 236.00 -67.00    -0.66102E-01
 236.00 -66.00    -0.14840    
 236.00 -65.00    -0.27101    
 236.00 -64.00    -0.42846    
 236.00 -63.00    -0.61511    
 236.00 -62.00    -0.82439    
 236.00 -61.00     -1.0498    
 236.00 -60.00     -1.2855    
 236.00 -59.00     -1.5257    
 236.00 -58.00     -1.7647    
 236.00 -57.00     -1.9970    
 236.00 -56.00     -2.2170    
 236.00 -55.00     -2.4194    
 236.00 -54.00     -2.5987    
 236.00 -53.00     -2.7494    
 236.00 -52.00     -2.8668    
 236.00 -51.00     -2.9467    
 236.00 -50.00     -2.9861    
 236.00 -49.00     -2.9838    
 236.00 -48.00     -2.9400    
 236.00 -47.00     -2.8574    
 236.00 -46.00     -2.7407    
 236.00 -45.00     -2.5966    
 236.00 -44.00     -2.4337    
 236.00 -43.00     -2.2618    
 236.00 -42.00     -2.0913    
 236.00 -41.00     -1.9324    
 236.00 -40.00     -1.7946    
 236.00 -39.00     -1.6858    
 236.00 -38.00     -1.6118    
 236.00 -37.00     -1.5757    
 236.00 -36.00     -1.5781    
 236.00 -35.00     -1.6166    
 236.00 -34.00     -1.6869    
 236.00 -33.00     -1.7824    
 236.00 -32.00     -1.8954    
 236.00 -31.00     -2.0175    
 236.00 -30.00     -2.1406    
 236.00 -29.00     -2.2572    
 236.00 -28.00     -2.3611    
 236.00 -27.00     -2.4478    
 236.00 -26.00     -2.5143    
