 225.00 -12.00     -1.1409    
 225.00 -11.00     -1.0836    
 225.00 -10.00     -1.0328    
 225.00  -9.00    -0.98997    
 225.00  -8.00    -0.95554    
 225.00  -7.00    -0.92869    
 225.00  -6.00    -0.90769    
 225.00  -5.00    -0.89011    
 225.00  -4.00    -0.87328    
 225.00  -3.00    -0.85463    
 225.00  -2.00    -0.83204    
 225.00  -1.00    -0.80413    
 225.00   0.00    -0.77039    
 225.00   1.00    -0.73120    
 225.00   2.00    -0.68775    
 225.00   3.00    -0.64179    
 225.00   4.00    -0.59531    
 225.00   5.00    -0.55023    
 225.00   6.00    -0.50800    
 225.00   7.00    -0.46933    
 225.00   8.00    -0.43401    
 225.00   9.00    -0.40083    
 225.00  10.00    -0.36767    
 225.00  11.00    -0.33172    
 225.00  12.00    -0.28984    
 225.00  13.00    -0.23897    
 225.00  14.00    -0.17661    
 225.00  15.00    -0.10123    
 225.00  16.00    -0.12614E-01
 225.00  17.00     0.87903E-01
 225.00  18.00     0.19742    
 225.00  19.00     0.31159    
 225.00  20.00     0.42498    
 225.00  21.00     0.53149    
 225.00  22.00     0.62500    
 225.00  23.00     0.69997    
 225.00  24.00     0.75205    
 225.00  25.00     0.77863    
 225.00  26.00     0.77914    
 225.00  27.00     0.75528    
 225.00  28.00     0.71089    
 225.00  29.00     0.65173    
 225.00  30.00     0.58489    
 225.00  31.00     0.51819    
 225.00  32.00     0.45942    
 225.00  33.00     0.41558    
 225.00  34.00     0.39215    
 225.00  35.00     0.39257    
 225.00  36.00     0.41787    
 225.00  37.00     0.46657    
 225.00  38.00     0.53484    
 225.00  39.00     0.61684    
 225.00  40.00     0.70541    
 225.00  41.00     0.79271    
 225.00  42.00     0.87108    
 225.00  43.00     0.93381    
 225.00  44.00     0.97581    
 225.00  45.00     0.99412    
 225.00  46.00     0.98816    
 225.00  47.00     0.95977    
 225.00  48.00     0.91296    
 225.00  49.00     0.85348    
 225.00  50.00     0.78815    
 225.00  51.00     0.72417    
 225.00  52.00     0.66834    
 225.00  53.00     0.62642    
 225.00  54.00     0.60259    
 225.00  55.00     0.59887    
 225.00  56.00     0.61543    
 225.00  57.00     0.65040    
 225.00  58.00     0.70032    
 225.00  59.00     0.76044    
 225.00  60.00     0.82555    
 225.00  61.00     0.89063    
 225.00  62.00     0.95133    
 225.00  63.00      1.0044    
 225.00  64.00      1.0482    
 225.00  65.00      1.0826    
 225.00  66.00      1.1089    
 225.00  67.00      1.1298    
 225.00  68.00      1.1484    
 225.00  69.00      1.1681    
 225.00  70.00      1.1922    
 225.00  71.00      1.2225    
 225.00  72.00      1.2597    
 225.00  73.00      1.3029    
 225.00  74.00      1.3500    
 225.00  75.00      1.3968    
 225.00  76.00      1.4391    
 225.00  77.00      1.4715    
 225.00  78.00      1.4889    
 225.00  79.00      1.4875    
 225.00  80.00      1.4652    
 225.00  81.00      1.4214    
 225.00  82.00      1.3558    
 225.00  83.00      1.2750    
 225.00  84.00      1.1832    
 225.00  85.00      1.0848    
 225.00  86.00     0.99114    
 225.00  87.00     0.90850    
 225.00  88.00     0.84220    
 225.00  89.00     0.80150    
 226.00 -89.00     0.57646    
 226.00 -88.00     0.61405    
 226.00 -87.00     0.64705    
 226.00 -86.00     0.67612    
 226.00 -85.00     0.69351    
 226.00 -84.00     0.69642    
 226.00 -83.00     0.68144    
 226.00 -82.00     0.64633    
 226.00 -81.00     0.59161    
 226.00 -80.00     0.51755    
 226.00 -79.00     0.42859    
 226.00 -78.00     0.32898    
 226.00 -77.00     0.22418    
 226.00 -76.00     0.12055    
 226.00 -75.00     0.24280E-01
 226.00 -74.00    -0.58815E-01
 226.00 -73.00    -0.12344    
 226.00 -72.00    -0.16717    
 226.00 -71.00    -0.18771    
 226.00 -70.00    -0.18553    
 226.00 -69.00    -0.16328    
 226.00 -68.00    -0.12450    
 226.00 -67.00    -0.74444E-01
 226.00 -66.00    -0.19361E-01
 226.00 -65.00     0.34692E-01
 226.00 -64.00     0.81344E-01
 226.00 -63.00     0.11512    
 226.00 -62.00     0.13195    
 226.00 -61.00     0.12908    
 226.00 -60.00     0.10544    
 226.00 -59.00     0.61612E-01
 226.00 -58.00    -0.16484E-03
 226.00 -57.00    -0.76552E-01
 226.00 -56.00    -0.16317    
 226.00 -55.00    -0.25524    
 226.00 -54.00    -0.34780    
 226.00 -53.00    -0.43606    
 226.00 -52.00    -0.51604    
 226.00 -51.00    -0.58444    
 226.00 -50.00    -0.63892    
 226.00 -49.00    -0.67816    
 226.00 -48.00    -0.70173    
 226.00 -47.00    -0.71007    
 226.00 -46.00    -0.70424    
 226.00 -45.00    -0.68581    
 226.00 -44.00    -0.65670    
 226.00 -43.00    -0.61902    
 226.00 -42.00    -0.57501    
 226.00 -41.00    -0.52698    
 226.00 -40.00    -0.47732    
 226.00 -39.00    -0.42844    
 226.00 -38.00    -0.38288    
 226.00 -37.00    -0.34321    
 226.00 -36.00    -0.31205    
 226.00 -35.00    -0.29200    
 226.00 -34.00    -0.28544    
 226.00 -33.00    -0.29445    
 226.00 -32.00    -0.32057    
 226.00 -31.00    -0.36460    
 226.00 -30.00    -0.42643    
 226.00 -29.00    -0.50495    
 226.00 -28.00    -0.59791    
 226.00 -27.00    -0.70202    
 226.00 -26.00    -0.81308    
 226.00 -25.00    -0.92616    
 226.00 -24.00     -1.0360    
 226.00 -23.00     -1.1372    
 226.00 -22.00     -1.2250    
 226.00 -21.00     -1.2951    
 226.00 -20.00     -1.3446    
 226.00 -19.00     -1.3718    
 226.00 -18.00     -1.3764    
 226.00 -17.00     -1.3597    
 226.00 -16.00     -1.3244    
 226.00 -15.00     -1.2741    
 226.00 -14.00     -1.2132    
 226.00 -13.00     -1.1464    
 226.00 -12.00     -1.0783    
 226.00 -11.00     -1.0129    
 226.00 -10.00    -0.95356    
 226.00  -9.00    -0.90230    
 226.00  -8.00    -0.86005    
 226.00  -7.00    -0.82661    
 226.00  -6.00    -0.80075    
 226.00  -5.00    -0.78047    
 226.00  -4.00    -0.76335    
 226.00  -3.00    -0.74690    
 226.00  -2.00    -0.72884    
 226.00  -1.00    -0.70740    
 226.00   0.00    -0.68152    
 226.00   1.00    -0.65087    
 226.00   2.00    -0.61582    
 226.00   3.00    -0.57733    
 226.00   4.00    -0.53663    
 226.00   5.00    -0.49503    
 226.00   6.00    -0.45357    
 226.00   7.00    -0.41279    
 226.00   8.00    -0.37259    
 226.00   9.00    -0.33212    
 226.00  10.00    -0.28986    
 226.00  11.00    -0.24382    
 226.00  12.00    -0.19176    
 226.00  13.00    -0.13158    
 226.00  14.00    -0.61688E-01
 226.00  15.00     0.18677E-01
 226.00  16.00     0.10914    
 226.00  17.00     0.20804    
 226.00  18.00     0.31243    
 226.00  19.00     0.41820    
 226.00  20.00     0.52041    
 226.00  21.00     0.61368    
 226.00  22.00     0.69275    
 226.00  23.00     0.75302    
 226.00  24.00     0.79108    
 226.00  25.00     0.80513    
 226.00  26.00     0.79530    
 226.00  27.00     0.76376    
 226.00  28.00     0.71456    
 226.00  29.00     0.65343    
 226.00  30.00     0.58719    
 226.00  31.00     0.52318    
 226.00  32.00     0.46860    
 226.00  33.00     0.42970    
 226.00  34.00     0.41129    
 226.00  35.00     0.41614    
 226.00  36.00     0.44474    
 226.00  37.00     0.49524    
 226.00  38.00     0.56363    
 226.00  39.00     0.64410    
 226.00  40.00     0.72967    
 226.00  41.00     0.81287    
 226.00  42.00     0.88653    
 226.00  43.00     0.94446    
 226.00  44.00     0.98212    
 226.00  45.00     0.99700    
 226.00  46.00     0.98893    
 226.00  47.00     0.96000    
 226.00  48.00     0.91430    
 226.00  49.00     0.85750    
 226.00  50.00     0.79623    
 226.00  51.00     0.73731    
 226.00  52.00     0.68712    
 226.00  53.00     0.65092    
 226.00  54.00     0.63239    
 226.00  55.00     0.63315    
 226.00  56.00     0.65299    
 226.00  57.00     0.68974    
 226.00  58.00     0.73981    
 226.00  59.00     0.79848    
 226.00  60.00     0.86058    
 226.00  61.00     0.92135    
 226.00  62.00     0.97670    
 226.00  63.00      1.0238    
 226.00  64.00      1.0613    
 226.00  65.00      1.0894    
 226.00  66.00      1.1098    
 226.00  67.00      1.1255    
 226.00  68.00      1.1398    
 226.00  69.00      1.1560    
 226.00  70.00      1.1777    
 226.00  71.00      1.2065    
 226.00  72.00      1.2432    
 226.00  73.00      1.2867    
 226.00  74.00      1.3349    
 226.00  75.00      1.3832    
 226.00  76.00      1.4273    
 226.00  77.00      1.4618    
 226.00  78.00      1.4813    
 226.00  79.00      1.4820    
 226.00  80.00      1.4616    
 226.00  81.00      1.4196    
 226.00  82.00      1.3554    
 226.00  83.00      1.2758    
 226.00  84.00      1.1848    
 226.00  85.00      1.0870    
 226.00  86.00     0.99344    
 226.00  87.00     0.91068    
 226.00  88.00     0.84389    
 226.00  89.00     0.80246    
 227.00 -89.00     0.57488    
 227.00 -88.00     0.61066    
 227.00 -87.00     0.64161    
 227.00 -86.00     0.66857    
 227.00 -85.00     0.68383    
 227.00 -84.00     0.68480    
 227.00 -83.00     0.66755    
 227.00 -82.00     0.63160    
 227.00 -81.00     0.57625    
 227.00 -80.00     0.50216    
 227.00 -79.00     0.41430    
 227.00 -78.00     0.31668    
 227.00 -77.00     0.21491    
 227.00 -76.00     0.11537    
 227.00 -75.00     0.24042E-01
 227.00 -74.00    -0.53282E-01
 227.00 -73.00    -0.11160    
 227.00 -72.00    -0.14868    
 227.00 -71.00    -0.16265    
 227.00 -70.00    -0.15437    
 227.00 -69.00    -0.12685    
 227.00 -68.00    -0.84082E-01
 227.00 -67.00    -0.31648E-01
 227.00 -66.00     0.23921E-01
 227.00 -65.00     0.76344E-01
 227.00 -64.00     0.11921    
 227.00 -63.00     0.14710    
 227.00 -62.00     0.15610    
 227.00 -61.00     0.14380    
 227.00 -60.00     0.10963    
 227.00 -59.00     0.54681E-01
 227.00 -58.00    -0.18136E-01
 227.00 -57.00    -0.10486    
 227.00 -56.00    -0.20046    
 227.00 -55.00    -0.29959    
 227.00 -54.00    -0.39683    
 227.00 -53.00    -0.48715    
 227.00 -52.00    -0.56638    
 227.00 -51.00    -0.63131    
 227.00 -50.00    -0.67987    
 227.00 -49.00    -0.71119    
 227.00 -48.00    -0.72545    
 227.00 -47.00    -0.72377    
 227.00 -46.00    -0.70797    
 227.00 -45.00    -0.68039    
 227.00 -44.00    -0.64360    
 227.00 -43.00    -0.60028    
 227.00 -42.00    -0.55307    
 227.00 -41.00    -0.50447    
 227.00 -40.00    -0.45683    
 227.00 -39.00    -0.41237    
 227.00 -38.00    -0.37317    
 227.00 -37.00    -0.34126    
 227.00 -36.00    -0.31861    
 227.00 -35.00    -0.30708    
 227.00 -34.00    -0.30839    
 227.00 -33.00    -0.32402    
 227.00 -32.00    -0.35503    
 227.00 -31.00    -0.40189    
 227.00 -30.00    -0.46440    
 227.00 -29.00    -0.54145    
 227.00 -28.00    -0.63105    
 227.00 -27.00    -0.73024    
 227.00 -26.00    -0.83525    
 227.00 -25.00    -0.94163    
 227.00 -24.00     -1.0446    
 227.00 -23.00     -1.1391    
 227.00 -22.00     -1.2207    
 227.00 -21.00     -1.2852    
 227.00 -20.00     -1.3297    
 227.00 -19.00     -1.3525    
 227.00 -18.00     -1.3529    
 227.00 -17.00     -1.3321    
 227.00 -16.00     -1.2923    
 227.00 -15.00     -1.2370    
 227.00 -14.00     -1.1702    
 227.00 -13.00     -1.0967    
 227.00 -12.00     -1.0211    
 227.00 -11.00    -0.94758    
 227.00 -10.00    -0.87978    
 227.00  -9.00    -0.82025    
 227.00  -8.00    -0.77044    
 227.00  -7.00    -0.73068    
 227.00  -6.00    -0.70021    
 227.00  -5.00    -0.67744    
 227.00  -4.00    -0.66018    
 227.00  -3.00    -0.64596    
 227.00  -2.00    -0.63231    
 227.00  -1.00    -0.61710    
 227.00   0.00    -0.59866    
 227.00   1.00    -0.57596    
 227.00   2.00    -0.54859    
 227.00   3.00    -0.51668    
 227.00   4.00    -0.48075    
 227.00   5.00    -0.44151    
 227.00   6.00    -0.39961    
 227.00   7.00    -0.35548    
 227.00   8.00    -0.30914    
 227.00   9.00    -0.26015    
 227.00  10.00    -0.20764    
 227.00  11.00    -0.15044    
 227.00  12.00    -0.87259E-01
 227.00  13.00    -0.16984E-01
 227.00  14.00     0.61057E-01
 227.00  15.00     0.14682    
 227.00  16.00     0.23935    
 227.00  17.00     0.33666    
 227.00  18.00     0.43575    
 227.00  19.00     0.53278    
 227.00  20.00     0.62331    
 227.00  21.00     0.70271    
 227.00  22.00     0.76661    
 227.00  23.00     0.81138    
 227.00  24.00     0.83456    
 227.00  25.00     0.83524    
 227.00  26.00     0.81426    
 227.00  27.00     0.77425    
 227.00  28.00     0.71953    
 227.00  29.00     0.65580    
 227.00  30.00     0.58964    
 227.00  31.00     0.52792    
 227.00  32.00     0.47720    
 227.00  33.00     0.44306    
 227.00  34.00     0.42958    
 227.00  35.00     0.43886    
 227.00  36.00     0.47087    
 227.00  37.00     0.52337    
 227.00  38.00     0.59214    
 227.00  39.00     0.67139    
 227.00  40.00     0.75435    
 227.00  41.00     0.83388    
 227.00  42.00     0.90328    
 227.00  43.00     0.95688    
 227.00  44.00     0.99066    
 227.00  45.00      1.0026    
 227.00  46.00     0.99289    
 227.00  47.00     0.96384    
 227.00  48.00     0.91964    
 227.00  49.00     0.86588    
 227.00  50.00     0.80892    
 227.00  51.00     0.75527    
 227.00  52.00     0.71084    
 227.00  53.00     0.68040    
 227.00  54.00     0.66712    
 227.00  55.00     0.67224    
 227.00  56.00     0.69514    
 227.00  57.00     0.73340    
 227.00  58.00     0.78329    
 227.00  59.00     0.84012    
 227.00  60.00     0.89879    
 227.00  61.00     0.95482    
 227.00  62.00      1.0044    
 227.00  63.00      1.0450    
 227.00  64.00      1.0758    
 227.00  65.00      1.0973    
 227.00  66.00      1.1115    
 227.00  67.00      1.1216    
 227.00  68.00      1.1312    
 227.00  69.00      1.1438    
 227.00  70.00      1.1630    
 227.00  71.00      1.1902    
 227.00  72.00      1.2263    
 227.00  73.00      1.2700    
 227.00  74.00      1.3191    
 227.00  75.00      1.3689    
 227.00  76.00      1.4149    
 227.00  77.00      1.4514    
 227.00  78.00      1.4730    
 227.00  79.00      1.4758    
 227.00  80.00      1.4574    
 227.00  81.00      1.4173    
 227.00  82.00      1.3547    
 227.00  83.00      1.2762    
 227.00  84.00      1.1861    
 227.00  85.00      1.0890    
 227.00  86.00     0.99562    
 227.00  87.00     0.91277    
 227.00  88.00     0.84555    
 227.00  89.00     0.80340    
 228.00 -89.00     0.57330    
 228.00 -88.00     0.60725    
 228.00 -87.00     0.63616    
 228.00 -86.00     0.66100    
 228.00 -85.00     0.67417    
 228.00 -84.00     0.67322    
 228.00 -83.00     0.65378    
 228.00 -82.00     0.61708    
 228.00 -81.00     0.56121    
 228.00 -80.00     0.48725    
 228.00 -79.00     0.40067    
 228.00 -78.00     0.30524    
 228.00 -77.00     0.20671    
 228.00 -76.00     0.11147    
 228.00 -75.00     0.25259E-01
 228.00 -74.00    -0.46127E-01
 228.00 -73.00    -0.98010E-01
 228.00 -72.00    -0.12833    
 228.00 -71.00    -0.13569    
 228.00 -70.00    -0.12131    
 228.00 -69.00    -0.88561E-01
 228.00 -68.00    -0.41869E-01
 228.00 -67.00     0.12871E-01
 228.00 -66.00     0.68869E-01
 228.00 -65.00     0.11964    
 228.00 -64.00     0.15875    
 228.00 -63.00     0.18088    
 228.00 -62.00     0.18226    
 228.00 -61.00     0.16089    
 228.00 -60.00     0.11666    
 228.00 -59.00     0.51207E-01
 228.00 -58.00    -0.31926E-01
 228.00 -57.00    -0.12816    
 228.00 -56.00    -0.23186    
 228.00 -55.00    -0.33713    
 228.00 -54.00    -0.43815    
 228.00 -53.00    -0.52968    
 228.00 -52.00    -0.60743    
 228.00 -51.00    -0.66832    
 228.00 -50.00    -0.71061    
 228.00 -49.00    -0.73390    
 228.00 -48.00    -0.73901    
 228.00 -47.00    -0.72779    
 228.00 -46.00    -0.70282    
 228.00 -45.00    -0.66719    
 228.00 -44.00    -0.62413    
 228.00 -43.00    -0.57687    
 228.00 -42.00    -0.52839    
 228.00 -41.00    -0.48136    
 228.00 -40.00    -0.43803    
 228.00 -39.00    -0.40036    
 228.00 -38.00    -0.36994    
 228.00 -37.00    -0.34819    
 228.00 -36.00    -0.33633    
 228.00 -35.00    -0.33548    
 228.00 -34.00    -0.34662    
 228.00 -33.00    -0.37056    
 228.00 -32.00    -0.40786    
 228.00 -31.00    -0.45866    
 228.00 -30.00    -0.52259    
 228.00 -29.00    -0.59860    
 228.00 -28.00    -0.68492    
 228.00 -27.00    -0.77896    
 228.00 -26.00    -0.87741    
 228.00 -25.00    -0.97635    
 228.00 -24.00     -1.0714    
 228.00 -23.00     -1.1582    
 228.00 -22.00     -1.2324    
 228.00 -21.00     -1.2901    
 228.00 -20.00     -1.3285    
 228.00 -19.00     -1.3457    
 228.00 -18.00     -1.3410    
 228.00 -17.00     -1.3153    
 228.00 -16.00     -1.2704    
 228.00 -15.00     -1.2095    
 228.00 -14.00     -1.1366    
 228.00 -13.00     -1.0562    
 228.00 -12.00    -0.97296    
 228.00 -11.00    -0.89135    
 228.00 -10.00    -0.81519    
 228.00  -9.00    -0.74749    
 228.00  -8.00    -0.69019    
 228.00  -7.00    -0.64409    
 228.00  -6.00    -0.60891    
 228.00  -5.00    -0.58343    
 228.00  -4.00    -0.56566    
 228.00  -3.00    -0.55315    
 228.00  -2.00    -0.54329    
 228.00  -1.00    -0.53355    
 228.00   0.00    -0.52172    
 228.00   1.00    -0.50607    
 228.00   2.00    -0.48542    
 228.00   3.00    -0.45914    
 228.00   4.00    -0.42704    
 228.00   5.00    -0.38927    
 228.00   6.00    -0.34612    
 228.00   7.00    -0.29789    
 228.00   8.00    -0.24475    
 228.00   9.00    -0.18666    
 228.00  10.00    -0.12341    
 228.00  11.00    -0.54634E-01
 228.00  12.00     0.20012E-01
 228.00  13.00     0.10068    
 228.00  14.00     0.18711    
 228.00  15.00     0.27848    
 228.00  16.00     0.37326    
 228.00  17.00     0.46912    
 228.00  18.00     0.56304    
 228.00  19.00     0.65141    
 228.00  20.00     0.73032    
 228.00  21.00     0.79585    
 228.00  22.00     0.84454    
 228.00  23.00     0.87371    
 228.00  24.00     0.88187    
 228.00  25.00     0.86896    
 228.00  26.00     0.83653    
 228.00  27.00     0.78772    
 228.00  28.00     0.72711    
 228.00  29.00     0.66037    
 228.00  30.00     0.59386    
 228.00  31.00     0.53399    
 228.00  32.00     0.48674    
 228.00  33.00     0.45700    
 228.00  34.00     0.44813    
 228.00  35.00     0.46162    
 228.00  36.00     0.49689    
 228.00  37.00     0.55132    
 228.00  38.00     0.62051    
 228.00  39.00     0.69868    
 228.00  40.00     0.77923    
 228.00  41.00     0.85538    
 228.00  42.00     0.92087    
 228.00  43.00     0.97055    
 228.00  44.00      1.0009    
 228.00  45.00      1.0103    
 228.00  46.00     0.99940    
 228.00  47.00     0.97065    
 228.00  48.00     0.92832    
 228.00  49.00     0.87789    
 228.00  50.00     0.82552    
 228.00  51.00     0.77731    
 228.00  52.00     0.73874    
 228.00  53.00     0.71409    
 228.00  54.00     0.70603    
 228.00  55.00     0.71539    
 228.00  56.00     0.74118    
 228.00  57.00     0.78072    
 228.00  58.00     0.83014    
 228.00  59.00     0.88484    
 228.00  60.00     0.93976    
 228.00  61.00     0.99070    
 228.00  62.00      1.0342    
 228.00  63.00      1.0680    
 228.00  64.00      1.0917    
 228.00  65.00      1.1063    
 228.00  66.00      1.1140    
 228.00  67.00      1.1183    
 228.00  68.00      1.1230    
 228.00  69.00      1.1318    
 228.00  70.00      1.1482    
 228.00  71.00      1.1736    
 228.00  72.00      1.2090    
 228.00  73.00      1.2529    
 228.00  74.00      1.3028    
 228.00  75.00      1.3541    
 228.00  76.00      1.4018    
 228.00  77.00      1.4404    
 228.00  78.00      1.4642    
 228.00  79.00      1.4692    
 228.00  80.00      1.4528    
 228.00  81.00      1.4146    
 228.00  82.00      1.3536    
 228.00  83.00      1.2763    
 228.00  84.00      1.1871    
 228.00  85.00      1.0908    
 228.00  86.00     0.99767    
 228.00  87.00     0.91477    
 228.00  88.00     0.84718    
 228.00  89.00     0.80434    
 229.00 -89.00     0.57171    
 229.00 -88.00     0.60383    
 229.00 -87.00     0.63071    
 229.00 -86.00     0.65343    
 229.00 -85.00     0.66453    
 229.00 -84.00     0.66170    
 229.00 -83.00     0.64018    
 229.00 -82.00     0.60279    
 229.00 -81.00     0.54649    
 229.00 -80.00     0.47282    
 229.00 -79.00     0.38768    
 229.00 -78.00     0.29463    
 229.00 -77.00     0.19951    
 229.00 -76.00     0.10875    
 229.00 -75.00     0.27812E-01
 229.00 -74.00    -0.37504E-01
 229.00 -73.00    -0.82865E-01
 229.00 -72.00    -0.10638    
 229.00 -71.00    -0.10712    
 229.00 -70.00    -0.86675E-01
 229.00 -69.00    -0.48767E-01
 229.00 -68.00     0.17632E-02
 229.00 -67.00     0.58729E-01
 229.00 -66.00     0.11511    
 229.00 -65.00     0.16422    
 229.00 -64.00     0.19966    
 229.00 -63.00     0.21622    
 229.00 -62.00     0.21031    
 229.00 -61.00     0.18031    
 229.00 -60.00     0.12661    
 229.00 -59.00     0.51381E-01
 229.00 -58.00    -0.41231E-01
 229.00 -57.00    -0.14605    
 229.00 -56.00    -0.25686    
 229.00 -55.00    -0.36729    
 229.00 -54.00    -0.47112    
 229.00 -53.00    -0.56301    
 229.00 -52.00    -0.63855    
 229.00 -51.00    -0.69487    
 229.00 -50.00    -0.73059    
 229.00 -49.00    -0.74582    
 229.00 -48.00    -0.74206    
 229.00 -47.00    -0.72187    
 229.00 -46.00    -0.68863    
 229.00 -45.00    -0.64614    
 229.00 -44.00    -0.59831    
 229.00 -43.00    -0.54885    
 229.00 -42.00    -0.50108    
 229.00 -41.00    -0.45774    
 229.00 -40.00    -0.42101    
 229.00 -39.00    -0.39246    
 229.00 -38.00    -0.37319    
 229.00 -37.00    -0.36389    
 229.00 -36.00    -0.36504    
 229.00 -35.00    -0.37692    
 229.00 -34.00    -0.39974    
 229.00 -33.00    -0.43362    
 229.00 -32.00    -0.47855    
 229.00 -31.00    -0.53434    
 229.00 -30.00    -0.60043    
 229.00 -29.00    -0.67583    
 229.00 -28.00    -0.75898    
 229.00 -27.00    -0.84771    
 229.00 -26.00    -0.93919    
 229.00 -25.00     -1.0301    
 229.00 -24.00     -1.1165    
 229.00 -23.00     -1.1946    
 229.00 -22.00     -1.2604    
 229.00 -21.00     -1.3104    
 229.00 -20.00     -1.3418    
 229.00 -19.00     -1.3526    
 229.00 -18.00     -1.3422    
 229.00 -17.00     -1.3109    
 229.00 -16.00     -1.2606    
 229.00 -15.00     -1.1940    
 229.00 -14.00     -1.1149    
 229.00 -13.00     -1.0277    
 229.00 -12.00    -0.93700    
 229.00 -11.00    -0.84742    
 229.00 -10.00    -0.76302    
 229.00  -9.00    -0.68718    
 229.00  -8.00    -0.62227    
 229.00  -7.00    -0.56957    
 229.00  -6.00    -0.52924    
 229.00  -5.00    -0.50039    
 229.00  -4.00    -0.48128    
 229.00  -3.00    -0.46951    
 229.00  -2.00    -0.46232    
 229.00  -1.00    -0.45686    
 229.00   0.00    -0.45042    
 229.00   1.00    -0.44063    
 229.00   2.00    -0.42562    
 229.00   3.00    -0.40400    
 229.00   4.00    -0.37495    
 229.00   5.00    -0.33805    
 229.00   6.00    -0.29326    
 229.00   7.00    -0.24074    
 229.00   8.00    -0.18079    
 229.00   9.00    -0.11374    
 229.00  10.00    -0.39971E-01
 229.00  11.00     0.40103E-01
 229.00  12.00     0.12594    
 229.00  13.00     0.21676    
 229.00  14.00     0.31144    
 229.00  15.00     0.40839    
 229.00  16.00     0.50553    
 229.00  17.00     0.60021    
 229.00  18.00     0.68935    
 229.00  19.00     0.76957    
 229.00  20.00     0.83744    
 229.00  21.00     0.88975    
 229.00  22.00     0.92387    
 229.00  23.00     0.93804    
 229.00  24.00     0.93168    
 229.00  25.00     0.90558    
 229.00  26.00     0.86198    
 229.00  27.00     0.80449    
 229.00  28.00     0.73794    
 229.00  29.00     0.66803    
 229.00  30.00     0.60086    
 229.00  31.00     0.54246    
 229.00  32.00     0.49822    
 229.00  33.00     0.47238    
 229.00  34.00     0.46767    
 229.00  35.00     0.48493    
 229.00  36.00     0.52309    
 229.00  37.00     0.57919    
 229.00  38.00     0.64865    
 229.00  39.00     0.72569    
 229.00  40.00     0.80391    
 229.00  41.00     0.87686    
 229.00  42.00     0.93871    
 229.00  43.00     0.98479    
 229.00  44.00      1.0121    
 229.00  45.00      1.0194    
 229.00  46.00      1.0077    
 229.00  47.00     0.97960    
 229.00  48.00     0.93949    
 229.00  49.00     0.89270    
 229.00  50.00     0.84513    
 229.00  51.00     0.80253    
 229.00  52.00     0.76992    
 229.00  53.00     0.75109    
 229.00  54.00     0.74820    
 229.00  55.00     0.76172    
 229.00  56.00     0.79026    
 229.00  57.00     0.83091    
 229.00  58.00     0.87968    
 229.00  59.00     0.93201    
 229.00  60.00     0.98295    
 229.00  61.00      1.0286    
 229.00  62.00      1.0657    
 229.00  63.00      1.0925    
 229.00  64.00      1.1090    
 229.00  65.00      1.1164    
 229.00  66.00      1.1174    
 229.00  67.00      1.1157    
 229.00  68.00      1.1153    
 229.00  69.00      1.1201    
 229.00  70.00      1.1335    
 229.00  71.00      1.1571    
 229.00  72.00      1.1916    
 229.00  73.00      1.2356    
 229.00  74.00      1.2862    
 229.00  75.00      1.3389    
 229.00  76.00      1.3884    
 229.00  77.00      1.4289    
 229.00  78.00      1.4549    
 229.00  79.00      1.4621    
 229.00  80.00      1.4478    
 229.00  81.00      1.4115    
 229.00  82.00      1.3521    
 229.00  83.00      1.2761    
 229.00  84.00      1.1878    
 229.00  85.00      1.0924    
 229.00  86.00     0.99960    
 229.00  87.00     0.91669    
 229.00  88.00     0.84877    
 229.00  89.00     0.80526    
 230.00 -89.00     0.57012    
 230.00 -88.00     0.60039    
 230.00 -87.00     0.62526    
 230.00 -86.00     0.64587    
 230.00 -85.00     0.65492    
 230.00 -84.00     0.65024    
 230.00 -83.00     0.62678    
 230.00 -82.00     0.58873    
 230.00 -81.00     0.53210    
 230.00 -80.00     0.45889    
 230.00 -79.00     0.37532    
 230.00 -78.00     0.28479    
 230.00 -77.00     0.19326    
 230.00 -76.00     0.10712    
 230.00 -75.00     0.31579E-01
 230.00 -74.00    -0.27574E-01
 230.00 -73.00    -0.66366E-01
 230.00 -72.00    -0.83063E-01
 230.00 -71.00    -0.77226E-01
 230.00 -70.00    -0.50803E-01
 230.00 -69.00    -0.78355E-02
 230.00 -68.00     0.46428E-01
 230.00 -67.00     0.10553    
 230.00 -66.00     0.16225    
 230.00 -65.00     0.20973    
 230.00 -64.00     0.24163    
 230.00 -63.00     0.25287    
 230.00 -62.00     0.24005    
 230.00 -61.00     0.20197    
 230.00 -60.00     0.13948    
 230.00 -59.00     0.55296E-01
 230.00 -58.00    -0.45862E-01
 230.00 -57.00    -0.15824    
 230.00 -56.00    -0.27513    
 230.00 -55.00    -0.38966    
 230.00 -54.00    -0.49534    
 230.00 -53.00    -0.58671    
 230.00 -52.00    -0.65935    
 230.00 -51.00    -0.71063    
 230.00 -50.00    -0.73954    
 230.00 -49.00    -0.74679    
 230.00 -48.00    -0.73450    
 230.00 -47.00    -0.70602    
 230.00 -46.00    -0.66548    
 230.00 -45.00    -0.61740    
 230.00 -44.00    -0.56632    
 230.00 -43.00    -0.51641    
 230.00 -42.00    -0.47127    
 230.00 -41.00    -0.43371    
 230.00 -40.00    -0.40572    
 230.00 -39.00    -0.38849    
 230.00 -38.00    -0.38253    
 230.00 -37.00    -0.38781    
 230.00 -36.00    -0.40397    
 230.00 -35.00    -0.43043    
 230.00 -34.00    -0.46658    
 230.00 -33.00    -0.51182    
 230.00 -32.00    -0.56558    
 230.00 -31.00    -0.62727    
 230.00 -30.00    -0.69616    
 230.00 -29.00    -0.77132    
 230.00 -28.00    -0.85143    
 230.00 -27.00    -0.93471    
 230.00 -26.00     -1.0189    
 230.00 -25.00     -1.1012    
 230.00 -24.00     -1.1784    
 230.00 -23.00     -1.2471    
 230.00 -22.00     -1.3038    
 230.00 -21.00     -1.3454    
 230.00 -20.00     -1.3692    
 230.00 -19.00     -1.3733    
 230.00 -18.00     -1.3568    
 230.00 -17.00     -1.3199    
 230.00 -16.00     -1.2642    
 230.00 -15.00     -1.1920    
 230.00 -14.00     -1.1070    
 230.00 -13.00     -1.0133    
 230.00 -12.00    -0.91551    
 230.00 -11.00    -0.81823    
 230.00 -10.00    -0.72575    
 230.00  -9.00    -0.64175    
 230.00  -8.00    -0.56900    
 230.00  -7.00    -0.50922    
 230.00  -6.00    -0.46297    
 230.00  -5.00    -0.42976    
 230.00  -4.00    -0.40807    
 230.00  -3.00    -0.39562    
 230.00  -2.00    -0.38958    
 230.00  -1.00    -0.38684    
 230.00   0.00    -0.38428    
 230.00   1.00    -0.37898    
 230.00   2.00    -0.36841    
 230.00   3.00    -0.35056    
 230.00   4.00    -0.32395    
 230.00   5.00    -0.28767    
 230.00   6.00    -0.24131    
 230.00   7.00    -0.18488    
 230.00   8.00    -0.11876    
 230.00   9.00    -0.43580E-01
 230.00  10.00     0.39760E-01
 230.00  11.00     0.13016    
 230.00  12.00     0.22627    
 230.00  13.00     0.32649    
 230.00  14.00     0.42887    
 230.00  15.00     0.53113    
 230.00  16.00     0.63064    
 230.00  17.00     0.72446    
 230.00  18.00     0.80944    
 230.00  19.00     0.88238    
 230.00  20.00     0.94029    
 230.00  21.00     0.98057    
 230.00  22.00      1.0014    
 230.00  23.00      1.0018    
 230.00  24.00     0.98207    
 230.00  25.00     0.94378    
 230.00  26.00     0.88979    
 230.00  27.00     0.82418    
 230.00  28.00     0.75201    
 230.00  29.00     0.67899    
 230.00  30.00     0.61103    
 230.00  31.00     0.55376    
 230.00  32.00     0.51205    
 230.00  33.00     0.48956    
 230.00  34.00     0.48840    
 230.00  35.00     0.50886    
 230.00  36.00     0.54940    
 230.00  37.00     0.60674    
 230.00  38.00     0.67616    
 230.00  39.00     0.75191    
 230.00  40.00     0.82777    
 230.00  41.00     0.89761    
 230.00  42.00     0.95602    
 230.00  43.00     0.99880    
 230.00  44.00      1.0234    
 230.00  45.00      1.0290    
 230.00  46.00      1.0168    
 230.00  47.00     0.98979    
 230.00  48.00     0.95221    
 230.00  49.00     0.90933    
 230.00  50.00     0.86677    
 230.00  51.00     0.82992    
 230.00  52.00     0.80335    
 230.00  53.00     0.79037    
 230.00  54.00     0.79263    
 230.00  55.00     0.81025    
 230.00  56.00     0.84145    
 230.00  57.00     0.88311    
 230.00  58.00     0.93110    
 230.00  59.00     0.98093    
 230.00  60.00      1.0278    
 230.00  61.00      1.0679    
 230.00  62.00      1.0986    
 230.00  63.00      1.1183    
 230.00  64.00      1.1273    
 230.00  65.00      1.1275    
 230.00  66.00      1.1216    
 230.00  67.00      1.1138    
 230.00  68.00      1.1082    
 230.00  69.00      1.1088    
 230.00  70.00      1.1192    
 230.00  71.00      1.1408    
 230.00  72.00      1.1743    
 230.00  73.00      1.2182    
 230.00  74.00      1.2695    
 230.00  75.00      1.3235    
 230.00  76.00      1.3746    
 230.00  77.00      1.4170    
 230.00  78.00      1.4452    
 230.00  79.00      1.4545    
 230.00  80.00      1.4423    
 230.00  81.00      1.4079    
 230.00  82.00      1.3503    
 230.00  83.00      1.2756    
 230.00  84.00      1.1882    
 230.00  85.00      1.0938    
 230.00  86.00      1.0014    
 230.00  87.00     0.91852    
 230.00  88.00     0.85033    
 230.00  89.00     0.80617    
 231.00 -89.00     0.56852    
 231.00 -88.00     0.59695    
 231.00 -87.00     0.61981    
 231.00 -86.00     0.63831    
 231.00 -85.00     0.64534    
 231.00 -84.00     0.63884    
 231.00 -83.00     0.61361    
 231.00 -82.00     0.57491    
 231.00 -81.00     0.51804    
 231.00 -80.00     0.44544    
 231.00 -79.00     0.36356    
 231.00 -78.00     0.27570    
 231.00 -77.00     0.18788    
 231.00 -76.00     0.10647    
 231.00 -75.00     0.36431E-01
 231.00 -74.00    -0.16504E-01
 231.00 -73.00    -0.48721E-01
 231.00 -72.00    -0.58639E-01
 231.00 -71.00    -0.46311E-01
 231.00 -70.00    -0.14027E-01
 231.00 -69.00     0.33865E-01
 231.00 -68.00     0.91731E-01
 231.00 -67.00     0.15287    
 231.00 -66.00     0.20989    
 231.00 -65.00     0.25579    
 231.00 -64.00     0.28430    
 231.00 -63.00     0.29051    
 231.00 -62.00     0.27124    
 231.00 -61.00     0.22569    
 231.00 -60.00     0.15518    
 231.00 -59.00     0.62949E-01
 231.00 -58.00    -0.45750E-01
 231.00 -57.00    -0.16462    
 231.00 -56.00    -0.28648    
 231.00 -55.00    -0.40406    
 231.00 -54.00    -0.51061    
 231.00 -53.00    -0.60063    
 231.00 -52.00    -0.66973    
 231.00 -51.00    -0.71554    
 231.00 -50.00    -0.73752    
 231.00 -49.00    -0.73692    
 231.00 -48.00    -0.71657    
 231.00 -47.00    -0.68055    
 231.00 -46.00    -0.63373    
 231.00 -45.00    -0.58134    
 231.00 -44.00    -0.52851    
 231.00 -43.00    -0.47984    
 231.00 -42.00    -0.43915    
 231.00 -41.00    -0.40927    
 231.00 -40.00    -0.39198    
 231.00 -39.00    -0.38801    
 231.00 -38.00    -0.39726    
 231.00 -37.00    -0.41892    
 231.00 -36.00    -0.45175    
 231.00 -35.00    -0.49432    
 231.00 -34.00    -0.54515    
 231.00 -33.00    -0.60289    
 231.00 -32.00    -0.66640    
 231.00 -31.00    -0.73468    
 231.00 -30.00    -0.80686    
 231.00 -29.00    -0.88204    
 231.00 -28.00    -0.95916    
 231.00 -27.00     -1.0369    
 231.00 -26.00     -1.1135    
 231.00 -25.00     -1.1868    
 231.00 -24.00     -1.2544    
 231.00 -23.00     -1.3133    
 231.00 -22.00     -1.3605    
 231.00 -21.00     -1.3934    
 231.00 -20.00     -1.4094    
 231.00 -19.00     -1.4066    
 231.00 -18.00     -1.3841    
 231.00 -17.00     -1.3419    
 231.00 -16.00     -1.2811    
 231.00 -15.00     -1.2040    
 231.00 -14.00     -1.1137    
 231.00 -13.00     -1.0142    
 231.00 -12.00    -0.90982    
 231.00 -11.00    -0.80529    
 231.00 -10.00    -0.70499    
 231.00  -9.00    -0.61283    
 231.00  -8.00    -0.53192    
 231.00  -7.00    -0.46439    
 231.00  -6.00    -0.41126    
 231.00  -5.00    -0.37238    
 231.00  -4.00    -0.34656    
 231.00  -3.00    -0.33168    
 231.00  -2.00    -0.32493    
 231.00  -1.00    -0.32306    
 231.00   0.00    -0.32263    
 231.00   1.00    -0.32028    
 231.00   2.00    -0.31296    
 231.00   3.00    -0.29804    
 231.00   4.00    -0.27349    
 231.00   5.00    -0.23791    
 231.00   6.00    -0.19050    
 231.00   7.00    -0.13109    
 231.00   8.00    -0.60060E-01
 231.00   9.00     0.21741E-01
 231.00  10.00     0.11302    
 231.00  11.00     0.21211    
 231.00  12.00     0.31700    
 231.00  13.00     0.42533    
 231.00  14.00     0.53446    
 231.00  15.00     0.64149    
 231.00  16.00     0.74327    
 231.00  17.00     0.83657    
 231.00  18.00     0.91816    
 231.00  19.00     0.98499    
 231.00  20.00      1.0344    
 231.00  21.00      1.0643    
 231.00  22.00      1.0736    
 231.00  23.00      1.0620    
 231.00  24.00      1.0306    
 231.00  25.00     0.98168    
 231.00  26.00     0.91856    
 231.00  27.00     0.84578    
 231.00  28.00     0.76863    
 231.00  29.00     0.69280    
 231.00  30.00     0.62405    
 231.00  31.00     0.56765    
 231.00  32.00     0.52803    
 231.00  33.00     0.50830    
 231.00  34.00     0.51003    
 231.00  35.00     0.53301    
 231.00  36.00     0.57532    
 231.00  37.00     0.63339    
 231.00  38.00     0.70238    
 231.00  39.00     0.77659    
 231.00  40.00     0.84999    
 231.00  41.00     0.91677    
 231.00  42.00     0.97191    
 231.00  43.00      1.0117    
 231.00  44.00      1.0338    
 231.00  45.00      1.0381    
 231.00  46.00      1.0259    
 231.00  47.00      1.0002    
 231.00  48.00     0.96548    
 231.00  49.00     0.92675    
 231.00  50.00     0.88938    
 231.00  51.00     0.85840    
 231.00  52.00     0.83794    
 231.00  53.00     0.83083    
 231.00  54.00     0.83824    
 231.00  55.00     0.85992    
 231.00  56.00     0.89375    
 231.00  57.00     0.93637    
 231.00  58.00     0.98355    
 231.00  59.00      1.0309    
 231.00  60.00      1.0736    
 231.00  61.00      1.1083    
 231.00  62.00      1.1324    
 231.00  63.00      1.1450    
 231.00  64.00      1.1467    
 231.00  65.00      1.1395    
 231.00  66.00      1.1268    
 231.00  67.00      1.1127    
 231.00  68.00      1.1018    
 231.00  69.00      1.0981    
 231.00  70.00      1.1054    
 231.00  71.00      1.1248    
 231.00  72.00      1.1572    
 231.00  73.00      1.2009    
 231.00  74.00      1.2527    
 231.00  75.00      1.3079    
 231.00  76.00      1.3606    
 231.00  77.00      1.4049    
 231.00  78.00      1.4352    
 231.00  79.00      1.4467    
 231.00  80.00      1.4365    
 231.00  81.00      1.4041    
 231.00  82.00      1.3481    
 231.00  83.00      1.2747    
 231.00  84.00      1.1883    
 231.00  85.00      1.0951    
 231.00  86.00      1.0031    
 231.00  87.00     0.92028    
 231.00  88.00     0.85186    
 231.00  89.00     0.80707    
 232.00 -89.00     0.56691    
 232.00 -88.00     0.59349    
 232.00 -87.00     0.61437    
 232.00 -86.00     0.63076    
 232.00 -85.00     0.63580    
 232.00 -84.00     0.62751    
 232.00 -83.00     0.60070    
 232.00 -82.00     0.56133    
 232.00 -81.00     0.50431    
 232.00 -80.00     0.43246    
 232.00 -79.00     0.35237    
 232.00 -78.00     0.26730    
 232.00 -77.00     0.18330    
 232.00 -76.00     0.10672    
 232.00 -75.00     0.42240E-01
 232.00 -74.00    -0.44615E-02
 232.00 -73.00    -0.30138E-01
 232.00 -72.00    -0.33359E-01
 232.00 -71.00    -0.14669E-01
 232.00 -70.00     0.23320E-01
 232.00 -69.00     0.75964E-01
 232.00 -68.00     0.13728    
 232.00 -67.00     0.20033    
 232.00 -66.00     0.25761    
 232.00 -65.00     0.30199    
 232.00 -64.00     0.32730    
 232.00 -63.00     0.32883    
 232.00 -62.00     0.30362    
 232.00 -61.00     0.25127    
 232.00 -60.00     0.17356    
 232.00 -59.00     0.74239E-01
 232.00 -58.00    -0.40947E-01
 232.00 -57.00    -0.16520    
 232.00 -56.00    -0.29092    
 232.00 -55.00    -0.41048    
 232.00 -54.00    -0.51696    
 232.00 -53.00    -0.60484    
 232.00 -52.00    -0.66982    
 232.00 -51.00    -0.70986    
 232.00 -50.00    -0.72486    
 232.00 -49.00    -0.71666    
 232.00 -48.00    -0.68877    
 232.00 -47.00    -0.64601    
 232.00 -46.00    -0.59397    
 232.00 -45.00    -0.53855    
 232.00 -44.00    -0.48541    
 232.00 -43.00    -0.43954    
 232.00 -42.00    -0.40495    
 232.00 -41.00    -0.38442    
 232.00 -40.00    -0.37947    
 232.00 -39.00    -0.39036    
 232.00 -38.00    -0.41631    
 232.00 -37.00    -0.45573    
 232.00 -36.00    -0.50650    
 232.00 -35.00    -0.56625    
 232.00 -34.00    -0.63267    
 232.00 -33.00    -0.70367    
 232.00 -32.00    -0.77749    
 232.00 -31.00    -0.85278    
 232.00 -30.00    -0.92848    
 232.00 -29.00     -1.0038    
 232.00 -28.00     -1.0779    
 232.00 -27.00     -1.1499    
 232.00 -26.00     -1.2187    
 232.00 -25.00     -1.2829    
 232.00 -24.00     -1.3405    
 232.00 -23.00     -1.3893    
 232.00 -22.00     -1.4270    
 232.00 -21.00     -1.4512    
 232.00 -20.00     -1.4595    
 232.00 -19.00     -1.4502    
 232.00 -18.00     -1.4223    
 232.00 -17.00     -1.3754    
 232.00 -16.00     -1.3105    
 232.00 -15.00     -1.2293    
 232.00 -14.00     -1.1347    
 232.00 -13.00     -1.0302    
 232.00 -12.00    -0.92021    
 232.00 -11.00    -0.80909    
 232.00 -10.00    -0.70134    
 232.00  -9.00    -0.60106    
 232.00  -8.00    -0.51167    
 232.00  -7.00    -0.43568    
 232.00  -6.00    -0.37452    
 232.00  -5.00    -0.32849    
 232.00  -4.00    -0.29674    
 232.00  -3.00    -0.27743    
 232.00  -2.00    -0.26789    
 232.00  -1.00    -0.26482    
 232.00   0.00    -0.26463    
 232.00   1.00    -0.26363    
 232.00   2.00    -0.25833    
 232.00   3.00    -0.24563    
 232.00   4.00    -0.22296    
 232.00   5.00    -0.18845    
 232.00   6.00    -0.14092    
 232.00   7.00    -0.79961E-01
 232.00   8.00    -0.58409E-02
 232.00   9.00     0.80489E-01
 232.00  10.00     0.17748    
 232.00  11.00     0.28305    
 232.00  12.00     0.39465    
 232.00  13.00     0.50935    
 232.00  14.00     0.62391    
 232.00  15.00     0.73487    
 232.00  16.00     0.83867    
 232.00  17.00     0.93177    
 232.00  18.00      1.0108    
 232.00  19.00      1.0729    
 232.00  20.00      1.1155    
 232.00  21.00      1.1371    
 232.00  22.00      1.1370    
 232.00  23.00      1.1157    
 232.00  24.00      1.0748    
 232.00  25.00      1.0170    
 232.00  26.00     0.94642    
 232.00  27.00     0.86775    
 232.00  28.00     0.78649    
 232.00  29.00     0.70838    
 232.00  30.00     0.63898    
 232.00  31.00     0.58330    
 232.00  32.00     0.54536    
 232.00  33.00     0.52781    
 232.00  34.00     0.53175    
 232.00  35.00     0.55657    
 232.00  36.00     0.59998    
 232.00  37.00     0.65823    
 232.00  38.00     0.72637    
 232.00  39.00     0.79879    
 232.00  40.00     0.86962    
 232.00  41.00     0.93339    
 232.00  42.00     0.98543    
 232.00  43.00      1.0224    
 232.00  44.00      1.0425    
 232.00  45.00      1.0458    
 232.00  46.00      1.0339    
 232.00  47.00      1.0099    
 232.00  48.00     0.97827    
 232.00  49.00     0.94389    
 232.00  50.00     0.91188    
 232.00  51.00     0.88687    
 232.00  52.00     0.87257    
 232.00  53.00     0.87135    
 232.00  54.00     0.88391    
 232.00  55.00     0.90966    
 232.00  56.00     0.94611    
 232.00  57.00     0.98973    
 232.00  58.00      1.0361    
 232.00  59.00      1.0810    
 232.00  60.00      1.1197    
 232.00  61.00      1.1491    
 232.00  62.00      1.1668    
 232.00  63.00      1.1724    
 232.00  64.00      1.1667    
 232.00  65.00      1.1523    
 232.00  66.00      1.1327    
 232.00  67.00      1.1125    
 232.00  68.00      1.0963    
 232.00  69.00      1.0882    
 232.00  70.00      1.0922    
 232.00  71.00      1.1093    
 232.00  72.00      1.1405    
 232.00  73.00      1.1839    
 232.00  74.00      1.2361    
 232.00  75.00      1.2924    
 232.00  76.00      1.3465    
 232.00  77.00      1.3926    
 232.00  78.00      1.4249    
 232.00  79.00      1.4385    
 232.00  80.00      1.4303    
 232.00  81.00      1.3998    
 232.00  82.00      1.3457    
 232.00  83.00      1.2737    
 232.00  84.00      1.1883    
 232.00  85.00      1.0962    
 232.00  86.00      1.0047    
 232.00  87.00     0.92195    
 232.00  88.00     0.85336    
 232.00  89.00     0.80796    
 233.00 -89.00     0.56530    
 233.00 -88.00     0.59003    
 233.00 -87.00     0.60894    
 233.00 -86.00     0.62323    
 233.00 -85.00     0.62631    
 233.00 -84.00     0.61624    
 233.00 -83.00     0.58807    
 233.00 -82.00     0.54799    
 233.00 -81.00     0.49091    
 233.00 -80.00     0.41995    
 233.00 -79.00     0.34174    
 233.00 -78.00     0.25956    
 233.00 -77.00     0.17946    
 233.00 -76.00     0.10775    
 233.00 -75.00     0.48871E-01
 233.00 -74.00     0.83825E-02
 233.00 -73.00    -0.10826E-01
 233.00 -72.00    -0.74788E-02
 233.00 -71.00     0.17408E-01
 233.00 -70.00     0.60903E-01
 233.00 -69.00     0.11810    
 233.00 -68.00     0.18268    
 233.00 -67.00     0.24753    
 233.00 -66.00     0.30502    
 233.00 -65.00     0.34795    
 233.00 -64.00     0.37027    
 233.00 -63.00     0.36747    
 233.00 -62.00     0.33687    
 233.00 -61.00     0.27843    
 233.00 -60.00     0.19439    
 233.00 -59.00     0.88978E-01
 233.00 -58.00    -0.31614E-01
 233.00 -57.00    -0.16013    
 233.00 -56.00    -0.28859    
 233.00 -55.00    -0.40912    
 233.00 -54.00    -0.51463    
 233.00 -53.00    -0.59966    
 233.00 -52.00    -0.66004    
 233.00 -51.00    -0.69408    
 233.00 -50.00    -0.70215    
 233.00 -49.00    -0.68669    
 233.00 -48.00    -0.65188    
 233.00 -47.00    -0.60324    
 233.00 -46.00    -0.54705    
 233.00 -45.00    -0.48982    
 233.00 -44.00    -0.43770    
 233.00 -43.00    -0.39603    
 233.00 -42.00    -0.36893    
 233.00 -41.00    -0.35911    
 233.00 -40.00    -0.36778    
 233.00 -39.00    -0.39468    
 233.00 -38.00    -0.43837    
 233.00 -37.00    -0.49642    
 233.00 -36.00    -0.56582    
 233.00 -35.00    -0.64331    
 233.00 -34.00    -0.72573    
 233.00 -33.00    -0.81024    
 233.00 -32.00    -0.89452    
 233.00 -31.00    -0.97684    
 233.00 -30.00     -1.0560    
 233.00 -29.00     -1.1313    
 233.00 -28.00     -1.2022    
 233.00 -27.00     -1.2683    
 233.00 -26.00     -1.3292    
 233.00 -25.00     -1.3840    
 233.00 -24.00     -1.4316    
 233.00 -23.00     -1.4705    
 233.00 -22.00     -1.4988    
 233.00 -21.00     -1.5146    
 233.00 -20.00     -1.5158    
 233.00 -19.00     -1.5008    
 233.00 -18.00     -1.4683    
 233.00 -17.00     -1.4179    
 233.00 -16.00     -1.3501    
 233.00 -15.00     -1.2662    
 233.00 -14.00     -1.1686    
 233.00 -13.00     -1.0605    
 233.00 -12.00    -0.94590    
 233.00 -11.00    -0.82907    
 233.00 -10.00    -0.71443    
 233.00  -9.00    -0.60620    
 233.00  -8.00    -0.50805    
 233.00  -7.00    -0.42286    
 233.00  -6.00    -0.35250    
 233.00  -5.00    -0.29773    
 233.00  -4.00    -0.25815    
 233.00  -3.00    -0.23228    
 233.00  -2.00    -0.21771    
 233.00  -1.00    -0.21127    
 233.00   0.00    -0.20933    
 233.00   1.00    -0.20803    
 233.00   2.00    -0.20357    
 233.00   3.00    -0.19245    
 233.00   4.00    -0.17165    
 233.00   5.00    -0.13886    
 233.00   6.00    -0.92476E-01
 233.00   7.00    -0.31770E-01
 233.00   8.00     0.43175E-01
 233.00   9.00     0.13146    
 233.00  10.00     0.23144    
 233.00  11.00     0.34078    
 233.00  12.00     0.45659    
 233.00  13.00     0.57550    
 233.00  14.00     0.69382    
 233.00  15.00     0.80763    
 233.00  16.00     0.91300    
 233.00  17.00      1.0061    
 233.00  18.00      1.0835    
 233.00  19.00      1.1422    
 233.00  20.00      1.1800    
 233.00  21.00      1.1955    
 233.00  22.00      1.1885    
 233.00  23.00      1.1599    
 233.00  24.00      1.1118    
 233.00  25.00      1.0474    
 233.00  26.00     0.97119    
 233.00  27.00     0.88813    
 233.00  28.00     0.80386    
 233.00  29.00     0.72412    
 233.00  30.00     0.65436    
 233.00  31.00     0.59933    
 233.00  32.00     0.56272    
 233.00  33.00     0.54681    
 233.00  34.00     0.55233    
 233.00  35.00     0.57831    
 233.00  36.00     0.62221    
 233.00  37.00     0.68010    
 233.00  38.00     0.74701    
 233.00  39.00     0.81739    
 233.00  40.00     0.88560    
 233.00  41.00     0.94643    
 233.00  42.00     0.99558    
 233.00  43.00      1.0301    
 233.00  44.00      1.0485    
 233.00  45.00      1.0511    
 233.00  46.00      1.0398    
 233.00  47.00      1.0179    
 233.00  48.00     0.98958    
 233.00  49.00     0.95975    
 233.00  50.00     0.93320    
 233.00  51.00     0.91423    
 233.00  52.00     0.90611    
 233.00  53.00     0.91079    
 233.00  54.00     0.92853    
 233.00  55.00     0.95836    
 233.00  56.00     0.99749    
 233.00  57.00      1.0422    
 233.00  58.00      1.0880    
 233.00  59.00      1.1305    
 233.00  60.00      1.1654    
 233.00  61.00      1.1897    
 233.00  62.00      1.2013    
 233.00  63.00      1.2001    
 233.00  64.00      1.1873    
 233.00  65.00      1.1657    
 233.00  66.00      1.1394    
 233.00  67.00      1.1131    
 233.00  68.00      1.0915    
 233.00  69.00      1.0792    
 233.00  70.00      1.0798    
 233.00  71.00      1.0946    
 233.00  72.00      1.1244    
 233.00  73.00      1.1673    
 233.00  74.00      1.2197    
 233.00  75.00      1.2769    
 233.00  76.00      1.3324    
 233.00  77.00      1.3801    
 233.00  78.00      1.4144    
 233.00  79.00      1.4300    
 233.00  80.00      1.4239    
 233.00  81.00      1.3953    
 233.00  82.00      1.3430    
 233.00  83.00      1.2723    
 233.00  84.00      1.1880    
 233.00  85.00      1.0971    
 233.00  86.00      1.0062    
 233.00  87.00     0.92354    
 233.00  88.00     0.85482    
 233.00  89.00     0.80883    
 234.00 -89.00     0.56368    
 234.00 -88.00     0.58656    
 234.00 -87.00     0.60351    
 234.00 -86.00     0.61572    
 234.00 -85.00     0.61686    
 234.00 -84.00     0.60505    
 234.00 -83.00     0.57573    
 234.00 -82.00     0.53490    
 234.00 -81.00     0.47785    
 234.00 -80.00     0.40790    
 234.00 -79.00     0.33162    
 234.00 -78.00     0.25243    
 234.00 -77.00     0.17629    
 234.00 -76.00     0.10947    
