 289.00 -65.00     0.15381    
 289.00 -64.00     0.19740    
 289.00 -63.00     0.23657    
 289.00 -62.00     0.25172    
 289.00 -61.00     0.22590    
 289.00 -60.00     0.15489    
 289.00 -59.00     0.49875E-01
 289.00 -58.00    -0.63493E-01
 289.00 -57.00    -0.15387    
 289.00 -56.00    -0.19509    
 289.00 -55.00    -0.17602    
 289.00 -54.00    -0.10562    
 289.00 -53.00    -0.97032E-02
 289.00 -52.00     0.77344E-01
 289.00 -51.00     0.12518    
 289.00 -50.00     0.11723    
 289.00 -49.00     0.55736E-01
 289.00 -48.00    -0.40725E-01
 289.00 -47.00    -0.14543    
 289.00 -46.00    -0.23356    
 289.00 -45.00    -0.29068    
 289.00 -44.00    -0.31613    
 289.00 -43.00    -0.32071    
 289.00 -42.00    -0.32009    
 289.00 -41.00    -0.32764    
 289.00 -40.00    -0.34936    
 289.00 -39.00    -0.38323    
 289.00 -38.00    -0.42207    
 289.00 -37.00    -0.45850    
 289.00 -36.00    -0.48872    
 289.00 -35.00    -0.51340    
 289.00 -34.00    -0.53516    
 289.00 -33.00    -0.55441    
 289.00 -32.00    -0.56580    
 289.00 -31.00    -0.55796    
 289.00 -30.00    -0.51712    
 289.00 -29.00    -0.43364    
 289.00 -28.00    -0.30857    
 289.00 -27.00    -0.15723    
 289.00 -26.00    -0.75523E-02
 289.00 -25.00     0.10668    
 289.00 -24.00     0.15572    
 289.00 -23.00     0.12320    
 289.00 -22.00     0.11458E-01
 289.00 -21.00    -0.15908    
 289.00 -20.00    -0.35623    
 289.00 -19.00    -0.54552    
 289.00 -18.00    -0.69935    
 289.00 -17.00    -0.80260    
 289.00 -16.00    -0.85315    
 289.00 -15.00    -0.85803    
 289.00 -14.00    -0.82741    
 289.00 -13.00    -0.76933    
 289.00 -12.00    -0.68736    
 289.00 -11.00    -0.58159    
 289.00 -10.00    -0.45181    
 289.00  -9.00    -0.30072    
 289.00  -8.00    -0.13512    
 289.00  -7.00     0.35571E-01
 289.00  -6.00     0.20280    
 289.00  -5.00     0.36220    
 289.00  -4.00     0.51468    
 289.00  -3.00     0.66429    
 289.00  -2.00     0.81331    
 289.00  -1.00     0.95688    
 289.00   0.00      1.0801    
 289.00   1.00      1.1597    
 289.00   2.00      1.1704    
 289.00   3.00      1.0947    
 289.00   4.00     0.93188    
 289.00   5.00     0.70185    
 289.00   6.00     0.44299    
 289.00   7.00     0.20230    
 289.00   8.00     0.21761E-01
 289.00   9.00    -0.74718E-01
 289.00  10.00    -0.88872E-01
 289.00  11.00    -0.47105E-01
 289.00  12.00     0.90184E-02
 289.00  13.00     0.37648E-01
 289.00  14.00     0.11633E-01
 289.00  15.00    -0.71792E-01
 289.00  16.00    -0.19016    
 289.00  17.00    -0.30413    
 289.00  18.00    -0.37201    
 289.00  19.00    -0.36528    
 289.00  20.00    -0.27948    
 289.00  21.00    -0.13662    
 289.00  22.00     0.21691E-01
 289.00  23.00     0.14791    
 289.00  24.00     0.20425    
 289.00  25.00     0.17499    
 289.00  26.00     0.71305E-01
 289.00  27.00    -0.72650E-01
 289.00  28.00    -0.21081    
 289.00  29.00    -0.29952    
 289.00  30.00    -0.31020    
 289.00  31.00    -0.23668    
 289.00  32.00    -0.95162E-01
 289.00  33.00     0.82373E-01
 289.00  34.00     0.25855    
 289.00  35.00     0.40120    
 289.00  36.00     0.49078    
 289.00  37.00     0.52309    
 289.00  38.00     0.50705    
 289.00  39.00     0.45950    
 289.00  40.00     0.39903    
 289.00  41.00     0.34141    
 289.00  42.00     0.29729    
 289.00  43.00     0.27241    
 289.00  44.00     0.26877    
 289.00  45.00     0.28606    
 289.00  46.00     0.32158    
 289.00  47.00     0.36933    
 289.00  48.00     0.41879    
 289.00  49.00     0.45484    
 289.00  50.00     0.45956    
 289.00  51.00     0.41700    
 289.00  52.00     0.31839    
 289.00  53.00     0.16743    
 289.00  54.00    -0.17983E-01
 289.00  55.00    -0.20790    
 289.00  56.00    -0.36722    
 289.00  57.00    -0.46522    
 289.00  58.00    -0.48484    
 289.00  59.00    -0.42879    
 289.00  60.00    -0.31952    
 289.00  61.00    -0.19298    
 289.00  62.00    -0.88134E-01
 289.00  63.00    -0.34453E-01
 289.00  64.00    -0.43593E-01
 289.00  65.00    -0.10546    
 289.00  66.00    -0.19255    
 289.00  67.00    -0.26936    
 289.00  68.00    -0.30446    
 289.00  69.00    -0.28039    
 289.00  70.00    -0.19952    
 289.00  71.00    -0.80832E-01
 289.00  72.00     0.45814E-01
 289.00  73.00     0.15127    
 289.00  74.00     0.21551    
 289.00  75.00     0.23346    
 289.00  76.00     0.21288    
 289.00  77.00     0.17089    
 289.00  78.00     0.12304    
 289.00  79.00     0.78961E-01
 289.00  80.00     0.38706E-01
 289.00  81.00    -0.50950E-02
 289.00  82.00    -0.62949E-01
 289.00  83.00    -0.13896    
 289.00  84.00    -0.23107    
 289.00  85.00    -0.32595    
 289.00  86.00    -0.40495    
 289.00  87.00    -0.44987    
 289.00  88.00    -0.45152    
 289.00  89.00    -0.41157    
 290.00 -89.00     0.13005E-01
 290.00 -88.00    -0.30680E-01
 290.00 -87.00    -0.10065    
 290.00 -86.00    -0.18922    
 290.00 -85.00    -0.27696    
 290.00 -84.00    -0.34000    
 290.00 -83.00    -0.36080    
 290.00 -82.00    -0.33469    
 290.00 -81.00    -0.27019    
 290.00 -80.00    -0.18818    
 290.00 -79.00    -0.10878    
 290.00 -78.00    -0.50181E-01
 290.00 -77.00    -0.18306E-01
 290.00 -76.00    -0.81812E-02
 290.00 -75.00    -0.75663E-02
 290.00 -74.00    -0.42111E-02
 290.00 -73.00     0.85754E-02
 290.00 -72.00     0.29434E-01
 290.00 -71.00     0.51894E-01
 290.00 -70.00     0.68628E-01
 290.00 -69.00     0.76772E-01
 290.00 -68.00     0.80423E-01
 290.00 -67.00     0.89138E-01
 290.00 -66.00     0.11240    
 290.00 -65.00     0.15368    
 290.00 -64.00     0.20598    
 290.00 -63.00     0.25218    
 290.00 -62.00     0.27176    
 290.00 -61.00     0.24757    
 290.00 -60.00     0.17607    
 290.00 -59.00     0.69489E-01
 290.00 -58.00    -0.45549E-01
 290.00 -57.00    -0.13720    
 290.00 -56.00    -0.17930    
 290.00 -55.00    -0.16104    
 290.00 -54.00    -0.91638E-01
 290.00 -53.00     0.30620E-02
 290.00 -52.00     0.89097E-01
 290.00 -51.00     0.13663    
 290.00 -50.00     0.12946    
 290.00 -49.00     0.69656E-01
 290.00 -48.00    -0.24852E-01
 290.00 -47.00    -0.12824    
 290.00 -46.00    -0.21622    
 290.00 -45.00    -0.27409    
 290.00 -44.00    -0.29973    
 290.00 -43.00    -0.30173    
 290.00 -42.00    -0.29358    
 290.00 -41.00    -0.28771    
 290.00 -40.00    -0.29132    
 290.00 -39.00    -0.30611    
 290.00 -38.00    -0.33055    
 290.00 -37.00    -0.36333    
 290.00 -36.00    -0.40516    
 290.00 -35.00    -0.45781    
 290.00 -34.00    -0.52067    
 290.00 -33.00    -0.58692    
 290.00 -32.00    -0.64183    
 290.00 -31.00    -0.66507    
 290.00 -30.00    -0.63710    
 290.00 -29.00    -0.54751    
 290.00 -28.00    -0.40184    
 290.00 -27.00    -0.22375    
 290.00 -26.00    -0.50584E-01
 290.00 -25.00     0.76562E-01
 290.00 -24.00     0.12512    
 290.00 -23.00     0.81304E-01
 290.00 -22.00    -0.45591E-01
 290.00 -21.00    -0.22640    
 290.00 -20.00    -0.42166    
 290.00 -19.00    -0.59391    
 290.00 -18.00    -0.71813    
 290.00 -17.00    -0.78674    
 290.00 -16.00    -0.80780    
 290.00 -15.00    -0.79785    
 290.00 -14.00    -0.77281    
 290.00 -13.00    -0.74099    
 290.00 -12.00    -0.70076    
 290.00 -11.00    -0.64336    
 290.00 -10.00    -0.55900    
 290.00  -9.00    -0.44293    
 290.00  -8.00    -0.29859    
 290.00  -7.00    -0.13633    
 290.00  -6.00     0.31213E-01
 290.00  -5.00     0.19477    
 290.00  -4.00     0.35183    
 290.00  -3.00     0.50586    
 290.00  -2.00     0.66143    
 290.00  -1.00     0.81755    
 290.00   0.00     0.96258    
 290.00   1.00      1.0740    
 290.00   2.00      1.1237    
 290.00   3.00      1.0883    
 290.00   4.00     0.95949    
 290.00   5.00     0.75090    
 290.00   6.00     0.49760    
 290.00   7.00     0.24769    
 290.00   8.00     0.48217E-01
 290.00   9.00    -0.69592E-01
 290.00  10.00    -0.10045    
 290.00  11.00    -0.66424E-01
 290.00  12.00    -0.88939E-02
 290.00  13.00     0.26425E-01
 290.00  14.00     0.59441E-02
 290.00  15.00    -0.79700E-01
 290.00  16.00    -0.21235    
 290.00  17.00    -0.35301    
 290.00  18.00    -0.45612    
 290.00  19.00    -0.48611    
 290.00  20.00    -0.43048    
 290.00  21.00    -0.30455    
 290.00  22.00    -0.14656    
 290.00  23.00    -0.47560E-02
 290.00  24.00     0.78643E-01
 290.00  25.00     0.81213E-01
 290.00  26.00     0.71256E-02
 290.00  27.00    -0.11495    
 290.00  28.00    -0.24173    
 290.00  29.00    -0.32929    
 290.00  30.00    -0.34636    
 290.00  31.00    -0.28266    
 290.00  32.00    -0.15023    
 290.00  33.00     0.22149E-01
 290.00  34.00     0.19866    
 290.00  35.00     0.34697    
 290.00  36.00     0.44602    
 290.00  37.00     0.48928    
 290.00  38.00     0.48325    
 290.00  39.00     0.44282    
 290.00  40.00     0.38548    
 290.00  41.00     0.32689    
 290.00  42.00     0.27843    
 290.00  43.00     0.24726    
 290.00  44.00     0.23691    
 290.00  45.00     0.24846    
 290.00  46.00     0.28021    
 290.00  47.00     0.32640    
 290.00  48.00     0.37623    
 290.00  49.00     0.41387    
 290.00  50.00     0.42066    
 290.00  51.00     0.38004    
 290.00  52.00     0.28304    
 290.00  53.00     0.13341    
 290.00  54.00    -0.50719E-01
 290.00  55.00    -0.23929    
 290.00  56.00    -0.39737    
 290.00  57.00    -0.49467    
 290.00  58.00    -0.51473    
 290.00  59.00    -0.46057    
 290.00  60.00    -0.35436    
 290.00  61.00    -0.23119    
 290.00  62.00    -0.12832    
 290.00  63.00    -0.73575E-01
 290.00  64.00    -0.77271E-01
 290.00  65.00    -0.12895    
 290.00  66.00    -0.20216    
 290.00  67.00    -0.26350    
 290.00  68.00    -0.28449    
 290.00  69.00    -0.25051    
 290.00  70.00    -0.16587    
 290.00  71.00    -0.50103E-01
 290.00  72.00     0.68086E-01
 290.00  73.00     0.16196    
 290.00  74.00     0.21444    
 290.00  75.00     0.22315    
 290.00  76.00     0.19758    
 290.00  77.00     0.15534    
 290.00  78.00     0.11109    
 290.00  79.00     0.72780E-01
 290.00  80.00     0.38447E-01
 290.00  81.00    -0.85479E-03
 290.00  82.00    -0.56617E-01
 290.00  83.00    -0.13307    
 290.00  84.00    -0.22739    
 290.00  85.00    -0.32538    
 290.00  86.00    -0.40715    
 290.00  87.00    -0.45371    
 290.00  88.00    -0.45538    
 290.00  89.00    -0.41400    
 291.00 -89.00     0.14323E-01
 291.00 -88.00    -0.27266E-01
 291.00 -87.00    -0.94638E-01
 291.00 -86.00    -0.18103    
 291.00 -85.00    -0.26805    
 291.00 -84.00    -0.33271    
 291.00 -83.00    -0.35822    
 291.00 -82.00    -0.33876    
 291.00 -81.00    -0.28262    
 291.00 -80.00    -0.20860    
 291.00 -79.00    -0.13516    
 291.00 -78.00    -0.79020E-01
 291.00 -77.00    -0.45724E-01
 291.00 -76.00    -0.31099E-01
 291.00 -75.00    -0.24617E-01
 291.00 -74.00    -0.16109E-01
 291.00 -73.00    -0.59086E-03
 291.00 -72.00     0.19822E-01
 291.00 -71.00     0.39060E-01
 291.00 -70.00     0.51423E-01
 291.00 -69.00     0.55972E-01
 291.00 -68.00     0.58624E-01
 291.00 -67.00     0.69804E-01
 291.00 -66.00     0.98807E-01
 291.00 -65.00     0.14788    
 291.00 -64.00     0.20835    
 291.00 -63.00     0.26150    
 291.00 -62.00     0.28596    
 291.00 -61.00     0.26448    
 291.00 -60.00     0.19406    
 291.00 -59.00     0.87701E-01
 291.00 -58.00    -0.27383E-01
 291.00 -57.00    -0.11921    
 291.00 -56.00    -0.16186    
 291.00 -55.00    -0.14486    
 291.00 -54.00    -0.77386E-01
 291.00 -53.00     0.15225E-01
 291.00 -52.00     0.10008    
 291.00 -51.00     0.14841    
 291.00 -50.00     0.14466    
 291.00 -49.00     0.90626E-01
 291.00 -48.00     0.29946E-02
 291.00 -47.00    -0.94221E-01
 291.00 -46.00    -0.17832    
 291.00 -45.00    -0.23532    
 291.00 -44.00    -0.26222    
 291.00 -43.00    -0.26545    
 291.00 -42.00    -0.25572    
 291.00 -41.00    -0.24335    
 291.00 -40.00    -0.23527    
 291.00 -39.00    -0.23540    
 291.00 -38.00    -0.24675    
 291.00 -37.00    -0.27365    
 291.00 -36.00    -0.32174    
 291.00 -35.00    -0.39525    
 291.00 -34.00    -0.49233    
 291.00 -33.00    -0.60122    
 291.00 -32.00    -0.69974    
 291.00 -31.00    -0.75979    
 291.00 -30.00    -0.75600    
 291.00 -29.00    -0.67579    
 291.00 -28.00    -0.52680    
 291.00 -27.00    -0.33799    
 291.00 -26.00    -0.15326    
 291.00 -25.00    -0.19038E-01
 291.00 -24.00     0.29948E-01
 291.00 -23.00    -0.18337E-01
 291.00 -22.00    -0.14964    
 291.00 -21.00    -0.32863    
 291.00 -20.00    -0.51097    
 291.00 -19.00    -0.65769    
 291.00 -18.00    -0.74665    
 291.00 -17.00    -0.77691    
 291.00 -16.00    -0.76504    
 291.00 -15.00    -0.73534    
 291.00 -14.00    -0.70848    
 291.00 -13.00    -0.69311    
 291.00 -12.00    -0.68370    
 291.00 -11.00    -0.66493    
 291.00 -10.00    -0.61999    
 291.00  -9.00    -0.53886    
 291.00  -8.00    -0.42276    
 291.00  -7.00    -0.28288    
 291.00  -6.00    -0.13451    
 291.00  -5.00     0.10512E-01
 291.00  -4.00     0.14893    
 291.00  -3.00     0.28619    
 291.00  -2.00     0.43125    
 291.00  -1.00     0.58832    
 291.00   0.00     0.74971    
 291.00   1.00     0.89358    
 291.00   2.00     0.98863    
 291.00   3.00      1.0044    
 291.00   4.00     0.92386    
 291.00   5.00     0.75235    
 291.00   6.00     0.51986    
 291.00   7.00     0.27379    
 291.00   8.00     0.65050E-01
 291.00   9.00    -0.68241E-01
 291.00  10.00    -0.11318    
 291.00  11.00    -0.86042E-01
 291.00  12.00    -0.26020E-01
 291.00  13.00     0.19194E-01
 291.00  14.00     0.10784E-01
 291.00  15.00    -0.67125E-01
 291.00  16.00    -0.20181    
 291.00  17.00    -0.35671    
 291.00  18.00    -0.48473    
 291.00  19.00    -0.54528    
 291.00  20.00    -0.51876    
 291.00  21.00    -0.41349    
 291.00  22.00    -0.26277    
 291.00  23.00    -0.11336    
 291.00  24.00    -0.96681E-02
 291.00  25.00     0.20705E-01
 291.00  26.00    -0.24673E-01
 291.00  27.00    -0.12343    
 291.00  28.00    -0.23679    
 291.00  29.00    -0.32263    
 291.00  30.00    -0.34871    
 291.00  31.00    -0.30161    
 291.00  32.00    -0.18905    
 291.00  33.00    -0.35502E-01
 291.00  34.00     0.12664    
 291.00  35.00     0.26695    
 291.00  36.00     0.36467    
 291.00  37.00     0.41221    
 291.00  38.00     0.41415    
 291.00  39.00     0.38315    
 291.00  40.00     0.33472    
 291.00  41.00     0.28306    
 291.00  42.00     0.23887    
 291.00  43.00     0.20927    
 291.00  44.00     0.19828    
 291.00  45.00     0.20771    
 291.00  46.00     0.23670    
 291.00  47.00     0.28023    
 291.00  48.00     0.32810    
 291.00  49.00     0.36494    
 291.00  50.00     0.37251    
 291.00  51.00     0.33447    
 291.00  52.00     0.24198    
 291.00  53.00     0.98544E-01
 291.00  54.00    -0.78293E-01
 291.00  55.00    -0.25950    
 291.00  56.00    -0.41146    
 291.00  57.00    -0.50515    
 291.00  58.00    -0.52503    
 291.00  59.00    -0.47414    
 291.00  60.00    -0.37370    
 291.00  61.00    -0.25693    
 291.00  62.00    -0.15864    
 291.00  63.00    -0.10443    
 291.00  64.00    -0.10320    
 291.00  65.00    -0.14444    
 291.00  66.00    -0.20326    
 291.00  67.00    -0.24900    
 291.00  68.00    -0.25650    
 291.00  69.00    -0.21410    
 291.00  70.00    -0.12790    
 291.00  71.00    -0.17594E-01
 291.00  72.00     0.89772E-01
 291.00  73.00     0.17023    
 291.00  74.00     0.20988    
 291.00  75.00     0.20905    
 291.00  76.00     0.17882    
 291.00  77.00     0.13703    
 291.00  78.00     0.97191E-01
 291.00  79.00     0.65379E-01
 291.00  80.00     0.37532E-01
 291.00  81.00     0.31000E-02
 291.00  82.00    -0.50349E-01
 291.00  83.00    -0.12714    
 291.00  84.00    -0.22363    
 291.00  85.00    -0.32466    
 291.00  86.00    -0.40920    
 291.00  87.00    -0.45742    
 291.00  88.00    -0.45915    
 291.00  89.00    -0.41640    
 292.00 -89.00     0.15653E-01
 292.00 -88.00    -0.23789E-01
 292.00 -87.00    -0.88480E-01
 292.00 -86.00    -0.17258    
 292.00 -85.00    -0.25877    
 292.00 -84.00    -0.32500    
 292.00 -83.00    -0.35520    
 292.00 -82.00    -0.34248    
 292.00 -81.00    -0.29480    
 292.00 -80.00    -0.22878    
 292.00 -79.00    -0.16127    
 292.00 -78.00    -0.10742    
 292.00 -77.00    -0.72465E-01
 292.00 -76.00    -0.53102E-01
 292.00 -75.00    -0.40594E-01
 292.00 -74.00    -0.26923E-01
 292.00 -73.00    -0.88444E-02
 292.00 -72.00     0.10808E-01
 292.00 -71.00     0.26346E-01
 292.00 -70.00     0.33766E-01
 292.00 -69.00     0.34069E-01
 292.00 -68.00     0.34980E-01
 292.00 -67.00     0.47791E-01
 292.00 -66.00     0.81653E-01
 292.00 -65.00     0.13767    
 292.00 -64.00     0.20566    
 292.00 -63.00     0.26555    
 292.00 -62.00     0.29520    
 292.00 -61.00     0.27745    
 292.00 -60.00     0.20966    
 292.00 -59.00     0.10540    
 292.00 -58.00    -0.79661E-02
 292.00 -57.00    -0.98707E-01
 292.00 -56.00    -0.14144    
 292.00 -55.00    -0.12613    
 292.00 -54.00    -0.61661E-01
 292.00 -53.00     0.27613E-01
 292.00 -52.00     0.11051    
 292.00 -51.00     0.15991    
 292.00 -50.00     0.16130    
 292.00 -49.00     0.11619    
 292.00 -48.00     0.39567E-01
 292.00 -47.00    -0.47204E-01
 292.00 -46.00    -0.12411    
 292.00 -45.00    -0.17886    
 292.00 -44.00    -0.20839    
 292.00 -43.00    -0.21711    
 292.00 -42.00    -0.21251    
 292.00 -41.00    -0.20165    
 292.00 -40.00    -0.18958    
 292.00 -39.00    -0.18063    
 292.00 -38.00    -0.18082    
 292.00 -37.00    -0.19924    
 292.00 -36.00    -0.24660    
 292.00 -35.00    -0.33076    
 292.00 -34.00    -0.45080    
 292.00 -33.00    -0.59267    
 292.00 -32.00    -0.72935    
 292.00 -31.00    -0.82673    
 292.00 -30.00    -0.85414    
 292.00 -29.00    -0.79595    
 292.00 -28.00    -0.65953    
 292.00 -27.00    -0.47611    
 292.00 -26.00    -0.29308    
 292.00 -25.00    -0.15998    
 292.00 -24.00    -0.11287    
 292.00 -23.00    -0.16276    
 292.00 -22.00    -0.29251    
 292.00 -21.00    -0.46321    
 292.00 -20.00    -0.62794    
 292.00 -19.00    -0.74752    
 292.00 -18.00    -0.80242    
 292.00 -17.00    -0.79674    
 292.00 -16.00    -0.75314    
 292.00 -15.00    -0.70135    
 292.00 -14.00    -0.66531    
 292.00 -13.00    -0.65402    
 292.00 -12.00    -0.65975    
 292.00 -11.00    -0.66343    
 292.00 -10.00    -0.64453    
 292.00  -9.00    -0.59060    
 292.00  -8.00    -0.50233    
 292.00  -7.00    -0.39189    
 292.00  -6.00    -0.27596    
 292.00  -5.00    -0.16673    
 292.00  -4.00    -0.65599E-01
 292.00  -3.00     0.37231E-01
 292.00  -2.00     0.15679    
 292.00  -1.00     0.30347    
 292.00   0.00     0.47387    
 292.00   1.00     0.64689    
 292.00   2.00     0.78761    
 292.00   3.00     0.85825    
 292.00   4.00     0.83231    
 292.00   5.00     0.70626    
 292.00   6.00     0.50383    
 292.00   7.00     0.27057    
 292.00   8.00     0.60138E-01
 292.00   9.00    -0.83023E-01
 292.00  10.00    -0.13828    
 292.00  11.00    -0.11521    
 292.00  12.00    -0.49366E-01
 292.00  13.00     0.11131E-01
 292.00  14.00     0.23307E-01
 292.00  15.00    -0.35100E-01
 292.00  16.00    -0.15783    
 292.00  17.00    -0.31271    
 292.00  18.00    -0.45359    
 292.00  19.00    -0.53704    
 292.00  20.00    -0.53765    
 292.00  21.00    -0.45676    
 292.00  22.00    -0.32146    
 292.00  23.00    -0.17481    
 292.00  24.00    -0.61014E-01
 292.00  25.00    -0.10807E-01
 292.00  26.00    -0.32216E-01
 292.00  27.00    -0.10933    
 292.00  28.00    -0.20902    
 292.00  29.00    -0.29273    
 292.00  30.00    -0.32898    
 292.00  31.00    -0.30244    
 292.00  32.00    -0.21687    
 292.00  33.00    -0.91907E-01
 292.00  34.00     0.44688E-01
 292.00  35.00     0.16600    
 292.00  36.00     0.25313    
 292.00  37.00     0.29866    
 292.00  38.00     0.30591    
 292.00  39.00     0.28534    
 292.00  40.00     0.24999    
 292.00  41.00     0.21165    
 292.00  42.00     0.17916    
 292.00  43.00     0.15829    
 292.00  44.00     0.15249    
 292.00  45.00     0.16354    
 292.00  46.00     0.19112    
 292.00  47.00     0.23125    
 292.00  48.00     0.27507    
 292.00  49.00     0.30876    
 292.00  50.00     0.31561    
 292.00  51.00     0.28043    
 292.00  52.00     0.19491    
 292.00  53.00     0.62113E-01
 292.00  54.00    -0.10171    
 292.00  55.00    -0.26967    
 292.00  56.00    -0.41056    
 292.00  57.00    -0.49749    
 292.00  58.00    -0.51616    
 292.00  59.00    -0.46945    
 292.00  60.00    -0.37700    
 292.00  61.00    -0.26927    
 292.00  62.00    -0.17792    
 292.00  63.00    -0.12575    
 292.00  64.00    -0.12018    
 292.00  65.00    -0.15094    
 292.00  66.00    -0.19521    
 292.00  67.00    -0.22557    
 292.00  68.00    -0.22055    
 292.00  69.00    -0.17150    
 292.00  70.00    -0.86091E-01
 292.00  71.00     0.16203E-01
 292.00  72.00     0.11045    
 292.00  73.00     0.17580    
 292.00  74.00     0.20170    
 292.00  75.00     0.19115    
 292.00  76.00     0.15668    
 292.00  77.00     0.11605    
 292.00  78.00     0.81429E-01
 292.00  79.00     0.56808E-01
 292.00  80.00     0.35966E-01
 292.00  81.00     0.67365E-02
 292.00  82.00    -0.44198E-01
 292.00  83.00    -0.12123    
 292.00  84.00    -0.21981    
 292.00  85.00    -0.32382    
 292.00  86.00    -0.41111    
 292.00  87.00    -0.46102    
 292.00  88.00    -0.46284    
 292.00  89.00    -0.41876    
 293.00 -89.00     0.16996E-01
 293.00 -88.00    -0.20254E-01
 293.00 -87.00    -0.82178E-01
 293.00 -86.00    -0.16388    
 293.00 -85.00    -0.24913    
 293.00 -84.00    -0.31684    
 293.00 -83.00    -0.35168    
 293.00 -82.00    -0.34579    
 293.00 -81.00    -0.30660    
 293.00 -80.00    -0.24857    
 293.00 -79.00    -0.18695    
 293.00 -78.00    -0.13525    
 293.00 -77.00    -0.98457E-01
 293.00 -76.00    -0.74185E-01
 293.00 -75.00    -0.55552E-01
 293.00 -74.00    -0.36725E-01
 293.00 -73.00    -0.16205E-01
 293.00 -72.00     0.24943E-02
 293.00 -71.00     0.14067E-01
 293.00 -70.00     0.16229E-01
 293.00 -69.00     0.11913E-01
 293.00 -68.00     0.10590E-01
 293.00 -67.00     0.24388E-01
 293.00 -66.00     0.62332E-01
 293.00 -65.00     0.12445    
 293.00 -64.00     0.19922    
 293.00 -63.00     0.26551    
 293.00 -62.00     0.30054    
 293.00 -61.00     0.28740    
 293.00 -60.00     0.22376    
 293.00 -59.00     0.12351    
 293.00 -58.00     0.13768E-01
 293.00 -57.00    -0.74443E-01
 293.00 -56.00    -0.11664    
 293.00 -55.00    -0.10338    
 293.00 -54.00    -0.43127E-01
 293.00 -53.00     0.41138E-01
 293.00 -52.00     0.12053    
 293.00 -51.00     0.17020    
 293.00 -50.00     0.17716    
 293.00 -49.00     0.14273    
 293.00 -48.00     0.79928E-01
 293.00 -47.00     0.68267E-02
 293.00 -46.00    -0.60228E-01
 293.00 -45.00    -0.11165    
 293.00 -44.00    -0.14514    
 293.00 -43.00    -0.16345    
 293.00 -42.00    -0.17062    
 293.00 -41.00    -0.16945    
 293.00 -40.00    -0.16155    
 293.00 -39.00    -0.14979    
 293.00 -38.00    -0.14138    
 293.00 -37.00    -0.14895    
 293.00 -36.00    -0.18802    
 293.00 -35.00    -0.27101    
 293.00 -34.00    -0.39992    
 293.00 -33.00    -0.56117    
 293.00 -32.00    -0.72573    
 293.00 -31.00    -0.85575    
 293.00 -30.00    -0.91633    
 293.00 -29.00    -0.88823    
 293.00 -28.00    -0.77668    
 293.00 -27.00    -0.61232    
 293.00 -26.00    -0.44306    
 293.00 -25.00    -0.31929    
 293.00 -24.00    -0.27753    
 293.00 -23.00    -0.32849    
 293.00 -22.00    -0.45407    
 293.00 -21.00    -0.61437    
 293.00 -20.00    -0.76208    
 293.00 -19.00    -0.85877    
 293.00 -18.00    -0.88698    
 293.00 -17.00    -0.85377    
 293.00 -16.00    -0.78499    
 293.00 -15.00    -0.71295    
 293.00 -14.00    -0.66300    
 293.00 -13.00    -0.64436    
 293.00 -12.00    -0.64862    
 293.00 -11.00    -0.65585    
 293.00 -10.00    -0.64522    
 293.00  -9.00    -0.60486    
 293.00  -8.00    -0.53678    
 293.00  -7.00    -0.45457    
 293.00  -6.00    -0.37535    
 293.00  -5.00    -0.30989    
 293.00  -4.00    -0.25582    
 293.00  -3.00    -0.19746    
 293.00  -2.00    -0.11286    
 293.00  -1.00     0.14803E-01
 293.00   0.00     0.18631    
 293.00   1.00     0.38118    
 293.00   2.00     0.56111    
 293.00   3.00     0.68148    
 293.00   4.00     0.70709    
 293.00   5.00     0.62590    
 293.00   6.00     0.45546    
 293.00   7.00     0.23898    
 293.00   8.00     0.31987E-01
 293.00   9.00    -0.11570    
 293.00  10.00    -0.17629    
 293.00  11.00    -0.15263    
 293.00  12.00    -0.76017E-01
 293.00  13.00     0.59808E-02
 293.00  14.00     0.47084E-01
 293.00  15.00     0.18898E-01
 293.00  16.00    -0.79414E-01
 293.00  17.00    -0.22162    
 293.00  18.00    -0.36459    
 293.00  19.00    -0.46403    
 293.00  20.00    -0.49017    
 293.00  21.00    -0.43764    
 293.00  22.00    -0.32638    
 293.00  23.00    -0.19392    
 293.00  24.00    -0.81880E-01
 293.00  25.00    -0.22036E-01
 293.00  26.00    -0.26583E-01
 293.00  27.00    -0.85664E-01
 293.00  28.00    -0.17242    
 293.00  29.00    -0.25313    
 293.00  30.00    -0.29864    
 293.00  31.00    -0.29300    
 293.00  32.00    -0.23684    
 293.00  33.00    -0.14505    
 293.00  34.00    -0.40242E-01
 293.00  35.00     0.55090E-01
 293.00  36.00     0.12502    
 293.00  37.00     0.16329    
 293.00  38.00     0.17270    
 293.00  39.00     0.16189    
 293.00  40.00     0.14134    
 293.00  41.00     0.12005    
 293.00  42.00     0.10419    
 293.00  43.00     0.97270E-01
 293.00  44.00     0.10120    
 293.00  45.00     0.11697    
 293.00  46.00     0.14437    
 293.00  47.00     0.18048    
 293.00  48.00     0.21835    
 293.00  49.00     0.24661    
 293.00  50.00     0.25110    
 293.00  51.00     0.21864    
 293.00  52.00     0.14194    
 293.00  53.00     0.23558E-01
 293.00  54.00    -0.12219    
 293.00  55.00    -0.27149    
 293.00  56.00    -0.39661    
 293.00  57.00    -0.47359    
 293.00  58.00    -0.48975    
 293.00  59.00    -0.44770    
 293.00  60.00    -0.36492    
 293.00  61.00    -0.26836    
 293.00  62.00    -0.18587    
 293.00  63.00    -0.13702    
 293.00  64.00    -0.12765    
 293.00  65.00    -0.14804    
 293.00  66.00    -0.17783    
 293.00  67.00    -0.19335    
 293.00  68.00    -0.17703    
 293.00  69.00    -0.12328    
 293.00  70.00    -0.41071E-01
 293.00  71.00     0.50711E-01
 293.00  72.00     0.12968    
 293.00  73.00     0.17840    
 293.00  74.00     0.18981    
 293.00  75.00     0.16950    
 293.00  76.00     0.13129    
 293.00  77.00     0.92560E-01
 293.00  78.00     0.63928E-01
 293.00  79.00     0.47140E-01
 293.00  80.00     0.33769E-01
 293.00  81.00     0.10029E-01
 293.00  82.00    -0.38211E-01
 293.00  83.00    -0.11537    
 293.00  84.00    -0.21598    
 293.00  85.00    -0.32289    
 293.00  86.00    -0.41290    
 293.00  87.00    -0.46450    
 293.00  88.00    -0.46644    
 293.00  89.00    -0.42109    
 294.00 -89.00     0.18350E-01
 294.00 -88.00    -0.16663E-01
 294.00 -87.00    -0.75737E-01
 294.00 -86.00    -0.15493    
 294.00 -85.00    -0.23912    
 294.00 -84.00    -0.30823    
 294.00 -83.00    -0.34760    
 294.00 -82.00    -0.34859    
 294.00 -81.00    -0.31790    
 294.00 -80.00    -0.26783    
 294.00 -79.00    -0.21205    
 294.00 -78.00    -0.16239    
 294.00 -77.00    -0.12364    
 294.00 -76.00    -0.94362E-01
 294.00 -75.00    -0.69566E-01
 294.00 -74.00    -0.45607E-01
 294.00 -73.00    -0.22719E-01
 294.00 -72.00    -0.50475E-02
 294.00 -71.00     0.25125E-02
 294.00 -70.00    -0.63696E-03
 294.00 -69.00    -0.96630E-02
 294.00 -68.00    -0.13451E-01
 294.00 -67.00     0.89513E-03
 294.00 -66.00     0.42255E-01
 294.00 -65.00     0.10965    
 294.00 -64.00     0.19040    
 294.00 -63.00     0.26259    
 294.00 -62.00     0.30304    
 294.00 -61.00     0.29524    
 294.00 -60.00     0.23718    
 294.00 -59.00     0.14285    
 294.00 -58.00     0.38710E-01
 294.00 -57.00    -0.45365E-01
 294.00 -56.00    -0.86218E-01
 294.00 -55.00    -0.75251E-01
 294.00 -54.00    -0.20512E-01
 294.00 -53.00     0.56692E-01
 294.00 -52.00     0.13026    
 294.00 -51.00     0.17826    
 294.00 -50.00     0.18970    
 294.00 -49.00     0.16604    
 294.00 -48.00     0.11828    
 294.00 -47.00     0.60787E-01
 294.00 -46.00     0.54582E-02
 294.00 -45.00    -0.41709E-01
 294.00 -44.00    -0.80041E-01
 294.00 -43.00    -0.11120    
 294.00 -42.00    -0.13576    
 294.00 -41.00    -0.15162    
 294.00 -40.00    -0.15561    
 294.00 -39.00    -0.14739    
 294.00 -38.00    -0.13355    
 294.00 -37.00    -0.12876    
 294.00 -36.00    -0.15273    
 294.00 -35.00    -0.22293    
 294.00 -34.00    -0.34591    
 294.00 -33.00    -0.51106    
 294.00 -32.00    -0.69011    
 294.00 -31.00    -0.84393    
 294.00 -30.00    -0.93472    
 294.00 -29.00    -0.93962    
 294.00 -28.00    -0.86023    
 294.00 -27.00    -0.72419    
 294.00 -26.00    -0.57727    
 294.00 -25.00    -0.46865    
 294.00 -24.00    -0.43450    
 294.00 -23.00    -0.48590    
 294.00 -22.00    -0.60568    
 294.00 -21.00    -0.75536    
 294.00 -20.00    -0.88928    
 294.00 -19.00    -0.97069    
 294.00 -18.00    -0.98349    
 294.00 -17.00    -0.93555    
 294.00 -16.00    -0.85280    
 294.00 -15.00    -0.76709    
 294.00 -14.00    -0.70312    
 294.00 -13.00    -0.66975    
 294.00 -12.00    -0.65905    
 294.00 -11.00    -0.65267    
 294.00 -10.00    -0.63243    
 294.00  -9.00    -0.58969    
 294.00  -8.00    -0.52948    
 294.00  -7.00    -0.46723    
 294.00  -6.00    -0.41998    
 294.00  -5.00    -0.39605    
 294.00  -4.00    -0.38839    
 294.00  -3.00    -0.37509    
 294.00  -2.00    -0.32753    
 294.00  -1.00    -0.22321    
 294.00   0.00    -0.57832E-01
 294.00   1.00     0.14863    
 294.00   2.00     0.35522    
 294.00   3.00     0.51203    
 294.00   4.00     0.57708    
 294.00   5.00     0.53168    
 294.00   6.00     0.38834    
 294.00   7.00     0.18809    
 294.00   8.00    -0.12427E-01
 294.00   9.00    -0.15936    
 294.00  10.00    -0.21920    
 294.00  11.00    -0.18904    
 294.00  12.00    -0.96215E-01
 294.00  13.00     0.12614E-01
 294.00  14.00     0.88533E-01
 294.00  15.00     0.97537E-01
 294.00  16.00     0.31661E-01
 294.00  17.00    -0.89560E-01
 294.00  18.00    -0.22733    
 294.00  19.00    -0.33815    
 294.00  20.00    -0.38910    
 294.00  21.00    -0.36863    
 294.00  22.00    -0.28915    
 294.00  23.00    -0.18130    
 294.00  24.00    -0.82269E-01
 294.00  25.00    -0.22950E-01
 294.00  26.00    -0.18198E-01
 294.00  27.00    -0.63440E-01
 294.00  28.00    -0.13813    
 294.00  29.00    -0.21417    
 294.00  30.00    -0.26587    
 294.00  31.00    -0.27792    
 294.00  32.00    -0.24884    
 294.00  33.00    -0.18943    
 294.00  34.00    -0.11734    
 294.00  35.00    -0.50443E-01
 294.00  36.00    -0.11925E-02
 294.00  37.00     0.25965E-01
 294.00  38.00     0.34029E-01
 294.00  39.00     0.30431E-01
 294.00  40.00     0.23510E-01
 294.00  41.00     0.19584E-01
 294.00  42.00     0.21972E-01
 294.00  43.00     0.31410E-01
 294.00  44.00     0.47585E-01
 294.00  45.00     0.69958E-01
 294.00  46.00     0.97878E-01
 294.00  47.00     0.12933    
 294.00  48.00     0.15954    
 294.00  49.00     0.18020    
 294.00  50.00     0.18058    
 294.00  51.00     0.15031    
 294.00  52.00     0.83580E-01
 294.00  53.00    -0.17515E-01
 294.00  54.00    -0.14104    
 294.00  55.00    -0.26708    
 294.00  56.00    -0.37225    
 294.00  57.00    -0.43631    
 294.00  58.00    -0.44854    
 294.00  59.00    -0.41121    
 294.00  60.00    -0.33920    
 294.00  61.00    -0.25535    
 294.00  62.00    -0.18310    
 294.00  63.00    -0.13847    
 294.00  64.00    -0.12570    
 294.00  65.00    -0.13586    
 294.00  66.00    -0.15141    
 294.00  67.00    -0.15282    
 294.00  68.00    -0.12661    
 294.00  69.00    -0.70212E-01
 294.00  70.00     0.63751E-02
 294.00  71.00     0.85275E-01
 294.00  72.00     0.14699    
 294.00  73.00     0.17780    
 294.00  74.00     0.17419    
 294.00  75.00     0.14422    
 294.00  76.00     0.10285    
 294.00  77.00     0.66759E-01
 294.00  78.00     0.44846E-01
 294.00  79.00     0.36471E-01
 294.00  80.00     0.30973E-01
 294.00  81.00     0.12959E-01
 294.00  82.00    -0.32433E-01
 294.00  83.00    -0.10962    
 294.00  84.00    -0.21219    
 294.00  85.00    -0.32190    
 294.00  86.00    -0.41459    
 294.00  87.00    -0.46787    
 294.00  88.00    -0.46996    
 294.00  89.00    -0.42337    
 295.00 -89.00     0.19714E-01
 295.00 -88.00    -0.13019E-01
 295.00 -87.00    -0.69163E-01
 295.00 -86.00    -0.14574    
 295.00 -85.00    -0.22874    
 295.00 -84.00    -0.29913    
 295.00 -83.00    -0.34291    
 295.00 -82.00    -0.35079    
 295.00 -81.00    -0.32857    
 295.00 -80.00    -0.28642    
 295.00 -79.00    -0.23642    
 295.00 -78.00    -0.18874    
 295.00 -77.00    -0.14796    
 295.00 -76.00    -0.11366    
 295.00 -75.00    -0.82730E-01
 295.00 -74.00    -0.53690E-01
 295.00 -73.00    -0.28464E-01
 295.00 -72.00    -0.11784E-01
 295.00 -71.00    -0.80819E-02
 295.00 -70.00    -0.16345E-01
 295.00 -69.00    -0.29897E-01
 295.00 -68.00    -0.36123E-01
 295.00 -67.00    -0.21463E-01
 295.00 -66.00     0.22763E-01
 295.00 -65.00     0.94654E-01
 295.00 -64.00     0.18051    
 295.00 -63.00     0.25794    
 295.00 -62.00     0.30365    
 295.00 -61.00     0.30174    
 295.00 -60.00     0.25050    
 295.00 -59.00     0.16390    
 295.00 -58.00     0.67380E-01
 295.00 -57.00    -0.10826E-01
 295.00 -56.00    -0.49347E-01
 295.00 -55.00    -0.40751E-01
 295.00 -54.00     0.71991E-02
 295.00 -53.00     0.75034E-01
 295.00 -52.00     0.13985    
 295.00 -51.00     0.18315    
 295.00 -50.00     0.19654    
 295.00 -49.00     0.18208    
 295.00 -48.00     0.14896    
 295.00 -47.00     0.10767    
 295.00 -46.00     0.65218E-01
 295.00 -45.00     0.23286E-01
 295.00 -44.00    -0.19914E-01
 295.00 -43.00    -0.65645E-01
 295.00 -42.00    -0.11133    
 295.00 -41.00    -0.14969    
 295.00 -40.00    -0.17194    
 295.00 -39.00    -0.17308    
 295.00 -38.00    -0.15738    
 295.00 -37.00    -0.14006    
 295.00 -36.00    -0.14405    
 295.00 -35.00    -0.19186    
 295.00 -34.00    -0.29567    
 295.00 -33.00    -0.44977    
 295.00 -32.00    -0.62913    
 295.00 -31.00    -0.79554    
 295.00 -30.00    -0.90983    
 295.00 -29.00    -0.94578    
 295.00 -28.00    -0.90048    
 295.00 -27.00    -0.79664    
 295.00 -26.00    -0.67575    
 295.00 -25.00    -0.58407    
 295.00 -24.00    -0.55674    
 295.00 -23.00    -0.60581    
 295.00 -22.00    -0.71683    
 295.00 -21.00    -0.85493    
 295.00 -20.00    -0.97806    
 295.00 -19.00     -1.0520    
 295.00 -18.00     -1.0616    
 295.00 -17.00     -1.0133    
 295.00 -16.00    -0.93058    
 295.00 -15.00    -0.84177    
 295.00 -14.00    -0.76879    
 295.00 -13.00    -0.71928    
 295.00 -12.00    -0.68633    
 295.00 -11.00    -0.65485    
 295.00 -10.00    -0.61137    
 295.00  -9.00    -0.55234    
 295.00  -8.00    -0.48694    
 295.00  -7.00    -0.43276    
 295.00  -6.00    -0.40651    
 295.00  -5.00    -0.41374    
 295.00  -4.00    -0.44283    
 295.00  -3.00    -0.46649    
 295.00  -2.00    -0.45097    
 295.00  -1.00    -0.36971    
 295.00   0.00    -0.21611    
 295.00   1.00    -0.97388E-02
 295.00   2.00     0.20696    
 295.00   3.00     0.38118    
 295.00   4.00     0.46723    
 295.00   5.00     0.44260    
 295.00   6.00     0.31684    
 295.00   7.00     0.12940    
 295.00   8.00    -0.62717E-01
 295.00   9.00    -0.20345    
 295.00  10.00    -0.25573    
 295.00  11.00    -0.21285    
 295.00  12.00    -0.99242E-01
 295.00  13.00     0.39184E-01
 295.00  14.00     0.15150    
 295.00  15.00     0.19904    
 295.00  16.00     0.16745    
 295.00  17.00     0.69767E-01
 295.00  18.00    -0.60039E-01
 295.00  19.00    -0.18016    
 295.00  20.00    -0.25562    
 295.00  21.00    -0.26947    
 295.00  22.00    -0.22674    
 295.00  23.00    -0.15062    
 295.00  24.00    -0.72787E-01
 295.00  25.00    -0.21824E-01
 295.00  26.00    -0.13918E-01
 295.00  27.00    -0.48829E-01
 295.00  28.00    -0.11193    
 295.00  29.00    -0.18089    
 295.00  30.00    -0.23417    
 295.00  31.00    -0.25803    
 295.00  32.00    -0.24994    
 295.00  33.00    -0.21759    
 295.00  34.00    -0.17448    
 295.00  35.00    -0.13429    
 295.00  36.00    -0.10616    
 295.00  37.00    -0.92466E-01
 295.00  38.00    -0.89467E-01
 295.00  39.00    -0.90152E-01
 295.00  40.00    -0.87522E-01
 295.00  41.00    -0.77259E-01
 295.00  42.00    -0.58536E-01
 295.00  43.00    -0.33405E-01
 295.00  44.00    -0.47969E-02
 295.00  45.00     0.24628E-01
 295.00  46.00     0.53153E-01
 295.00  47.00     0.79276E-01
 295.00  48.00     0.10034    
 295.00  49.00     0.11149    
 295.00  50.00     0.10600    
 295.00  51.00     0.77002E-01
 295.00  52.00     0.20642E-01
 295.00  53.00    -0.61306E-01
 295.00  54.00    -0.15960    
 295.00  55.00    -0.25881    
 295.00  56.00    -0.34066    
 295.00  57.00    -0.38921    
 295.00  58.00    -0.39611    
 295.00  59.00    -0.36322    
 295.00  60.00    -0.30250    
 295.00  61.00    -0.23225    
 295.00  62.00    -0.17101    
 295.00  63.00    -0.13106    
 295.00  64.00    -0.11504    
 295.00  65.00    -0.11504    
 295.00  66.00    -0.11667    
 295.00  67.00    -0.10486    
 295.00  68.00    -0.70292E-01
 295.00  69.00    -0.13322E-01
 295.00  70.00     0.55327E-01
 295.00  71.00     0.11918    
 295.00  72.00     0.16193    
 295.00  73.00     0.17379    
 295.00  74.00     0.15486    
 295.00  75.00     0.11551    
 295.00  76.00     0.71610E-01
 295.00  77.00     0.38897E-01
 295.00  78.00     0.24373E-01
 295.00  79.00     0.24919E-01
 295.00  80.00     0.27619E-01
 295.00  81.00     0.15515E-01
 295.00  82.00    -0.26906E-01
 295.00  83.00    -0.10403    
 295.00  84.00    -0.20846    
 295.00  85.00    -0.32087    
 295.00  86.00    -0.41618    
 295.00  87.00    -0.47113    
 295.00  88.00    -0.47340    
 295.00  89.00    -0.42562    
 296.00 -89.00     0.21088E-01
 296.00 -88.00    -0.93250E-02
 296.00 -87.00    -0.62462E-01
 296.00 -86.00    -0.13632    
 296.00 -85.00    -0.21799    
 296.00 -84.00    -0.28954    
 296.00 -83.00    -0.33754    
 296.00 -82.00    -0.35232    
 296.00 -81.00    -0.33850    
 296.00 -80.00    -0.30421    
 296.00 -79.00    -0.25993    
 296.00 -78.00    -0.21418    
 296.00 -77.00    -0.17139    
 296.00 -76.00    -0.13213    
 296.00 -75.00    -0.95158E-01
 296.00 -74.00    -0.61117E-01
 296.00 -73.00    -0.33551E-01
 296.00 -72.00    -0.17731E-01
 296.00 -71.00    -0.17549E-01
 296.00 -70.00    -0.30497E-01
 296.00 -69.00    -0.48142E-01
 296.00 -68.00    -0.56539E-01
 296.00 -67.00    -0.41610E-01
 296.00 -66.00     0.50435E-02
 296.00 -65.00     0.80659E-01
 296.00 -64.00     0.17067    
 296.00 -63.00     0.25252    
 296.00 -62.00     0.30311    
 296.00 -61.00     0.30736    
 296.00 -60.00     0.26396    
 296.00 -59.00     0.18674    
 296.00 -58.00     0.99763E-01
 296.00 -57.00     0.29215E-01
 296.00 -56.00    -0.58180E-02
 296.00 -55.00     0.54076E-03
 296.00 -54.00     0.40570E-01
 296.00 -53.00     0.96675E-01
 296.00 -52.00     0.14940    
 296.00 -51.00     0.18422    
 296.00 -50.00     0.19587    
 296.00 -49.00     0.18762    
 296.00 -48.00     0.16726    
 296.00 -47.00     0.14163    
 296.00 -46.00     0.11265    
 296.00 -45.00     0.77210E-01
 296.00 -44.00     0.30345E-01
 296.00 -43.00    -0.29609E-01
 296.00 -42.00    -0.97535E-01
 296.00 -41.00    -0.16123    
 296.00 -40.00    -0.20589    
 296.00 -39.00    -0.22101    
 296.00 -38.00    -0.20716    
 296.00 -37.00    -0.17868    
 296.00 -36.00    -0.16056    
 296.00 -35.00    -0.17986    
 296.00 -34.00    -0.25476    
 296.00 -33.00    -0.38569    
 296.00 -32.00    -0.55263    
 296.00 -31.00    -0.72018    
 296.00 -30.00    -0.84919    
 296.00 -29.00    -0.91067    
 296.00 -28.00    -0.89669    
 296.00 -27.00    -0.82382    
 296.00 -26.00    -0.72768    
 296.00 -25.00    -0.65031    
 296.00 -24.00    -0.62532    
 296.00 -23.00    -0.66635    
 296.00 -22.00    -0.76309    
 296.00 -21.00    -0.88627    
 296.00 -20.00    -0.99919    
 296.00 -19.00     -1.0712    
 296.00 -18.00     -1.0874    
 296.00 -17.00     -1.0520    
 296.00 -16.00    -0.98328    
 296.00 -15.00    -0.90389    
 296.00 -14.00    -0.83098    
 296.00 -13.00    -0.76998    
 296.00 -12.00    -0.71499    
 296.00 -11.00    -0.65488    
 296.00 -10.00    -0.58195    
 296.00  -9.00    -0.49856    
 296.00  -8.00    -0.41840    
 296.00  -7.00    -0.36117    
 296.00  -6.00    -0.34306    
 296.00  -5.00    -0.36709    
 296.00  -4.00    -0.41802    
 296.00  -3.00    -0.46502    
 296.00  -2.00    -0.47154    
 296.00  -1.00    -0.40935    
 296.00   0.00    -0.27109    
 296.00   1.00    -0.76125E-01
 296.00   2.00     0.13310    
 296.00   3.00     0.30377    
 296.00   4.00     0.39007    
 296.00   5.00     0.36920    
 296.00   6.00     0.25009    
 296.00   7.00     0.71435E-01
 296.00   8.00    -0.11030    
 296.00   9.00    -0.23905    
 296.00  10.00    -0.27698    
 296.00  11.00    -0.21604    
 296.00  12.00    -0.79357E-01
 296.00  13.00     0.87556E-01
 296.00  14.00     0.23253    
 296.00  15.00     0.31365    
 296.00  16.00     0.31175    
 296.00  17.00     0.23451    
 296.00  18.00     0.11148    
 296.00  19.00    -0.17564E-01
 296.00  20.00    -0.11648    
 296.00  21.00    -0.16390    
 296.00  22.00    -0.15829    
 296.00  23.00    -0.11576    
 296.00  24.00    -0.62248E-01
 296.00  25.00    -0.23349E-01
 296.00  26.00    -0.15638E-01
 296.00  27.00    -0.42238E-01
 296.00  28.00    -0.93668E-01
 296.00  29.00    -0.15298    
 296.00  30.00    -0.20279    
 296.00  31.00    -0.23145    
 296.00  32.00    -0.23622    
 296.00  33.00    -0.22277    
 296.00  34.00    -0.20159    
 296.00  35.00    -0.18323    
 296.00  36.00    -0.17418    
 296.00  37.00    -0.17493    
 296.00  38.00    -0.18070    
 296.00  39.00    -0.18405    
 296.00  40.00    -0.17827    
 296.00  41.00    -0.15992    
 296.00  42.00    -0.12983    
 296.00  43.00    -0.92369E-01
 296.00  44.00    -0.53188E-01
 296.00  45.00    -0.17512E-01
 296.00  46.00     0.11227E-01
 296.00  47.00     0.31447E-01
 296.00  48.00     0.42290E-01
 296.00  49.00     0.42409E-01
 296.00  50.00     0.29440E-01
 296.00  51.00     0.52898E-03
 296.00  52.00    -0.45775E-01
 296.00  53.00    -0.10779    
 296.00  54.00    -0.17910    
 296.00  55.00    -0.24913    
 296.00  56.00    -0.30523    
 296.00  57.00    -0.33630    
 296.00  58.00    -0.33657    
 296.00  59.00    -0.30758    
 296.00  60.00    -0.25815    
 296.00  61.00    -0.20172    
 296.00  62.00    -0.15161    
 296.00  63.00    -0.11630    
 296.00  64.00    -0.96873E-01
 296.00  65.00    -0.86692E-01
 296.00  66.00    -0.74780E-01
 296.00  67.00    -0.50688E-01
 296.00  68.00    -0.93234E-02
 296.00  69.00     0.46195E-01
 296.00  70.00     0.10475    
 296.00  71.00     0.15164    
 296.00  72.00     0.17404    
 296.00  73.00     0.16622    
 296.00  74.00     0.13190    
 296.00  75.00     0.83601E-01
 296.00  76.00     0.37873E-01
 296.00  77.00     0.92637E-02
 296.00  78.00     0.27285E-02
 296.00  79.00     0.12617E-01
 296.00  80.00     0.23763E-01
 296.00  81.00     0.17690E-01
 296.00  82.00    -0.21668E-01
 296.00  83.00    -0.98637E-01
 296.00  84.00    -0.20484    
 296.00  85.00    -0.31983    
 296.00  86.00    -0.41769    
 296.00  87.00    -0.47429    
 296.00  88.00    -0.47676    
 296.00  89.00    -0.42783    
 297.00 -89.00     0.22470E-01
 297.00 -88.00    -0.55850E-02
 297.00 -87.00    -0.55640E-01
 297.00 -86.00    -0.12667    
 297.00 -85.00    -0.20687    
 297.00 -84.00    -0.27943    
 297.00 -83.00    -0.33146    
 297.00 -82.00    -0.35309    
 297.00 -81.00    -0.34758    
 297.00 -80.00    -0.32108    
 297.00 -79.00    -0.28244    
 297.00 -78.00    -0.23863    
 297.00 -77.00    -0.19390    
 297.00 -76.00    -0.14981    
 297.00 -75.00    -0.10697    
 297.00 -74.00    -0.68054E-01
 297.00 -73.00    -0.38129E-01
 297.00 -72.00    -0.22956E-01
 297.00 -71.00    -0.25807E-01
 297.00 -70.00    -0.42815E-01
 297.00 -69.00    -0.63902E-01
 297.00 -68.00    -0.73998E-01
 297.00 -67.00    -0.58677E-01
 297.00 -66.00    -0.99420E-02
 297.00 -65.00     0.68643E-01
 297.00 -64.00     0.16180    
 297.00 -63.00     0.24705    
 297.00 -62.00     0.30190    
 297.00 -61.00     0.31225    
 297.00 -60.00     0.27738    
 297.00 -59.00     0.21087    
 297.00 -58.00     0.13521    
 297.00 -57.00     0.74073E-01
 297.00 -56.00     0.43802E-01
 297.00 -55.00     0.48299E-01
 297.00 -54.00     0.79558E-01
 297.00 -53.00     0.12177    
 297.00 -52.00     0.15906    
 297.00 -51.00     0.18125    
 297.00 -50.00     0.18676    
 297.00 -49.00     0.18074    
 297.00 -48.00     0.17021    
 297.00 -47.00     0.15880    
 297.00 -46.00     0.14352    
 297.00 -45.00     0.11628    
 297.00 -44.00     0.68363E-01
 297.00 -43.00    -0.31433E-02
 297.00 -42.00    -0.91442E-01
 297.00 -41.00    -0.18010    
 297.00 -40.00    -0.24854    
 297.00 -39.00    -0.28046    
 297.00 -38.00    -0.27187    
 297.00 -37.00    -0.23501    
 297.00 -36.00    -0.19570    
 297.00 -35.00    -0.18461    
 297.00 -34.00    -0.22560    
 297.00 -33.00    -0.32569    
 297.00 -32.00    -0.47085    
 297.00 -31.00    -0.62981    
 297.00 -30.00    -0.76460    
 297.00 -29.00    -0.84415    
 297.00 -28.00    -0.85552    
 297.00 -27.00    -0.80854    
 297.00 -26.00    -0.73201    
 297.00 -25.00    -0.66294    
 297.00 -24.00    -0.63310    
 297.00 -23.00    -0.65808    
 297.00 -22.00    -0.73287    
 297.00 -21.00    -0.83528    
 297.00 -20.00    -0.93541    
 297.00 -19.00     -1.0070    
 297.00 -18.00     -1.0357    
 297.00 -17.00     -1.0225    
 297.00 -16.00    -0.97911    
 297.00 -15.00    -0.92092    
 297.00 -14.00    -0.85892    
 297.00 -13.00    -0.79542    
 297.00 -12.00    -0.72515    
 297.00 -11.00    -0.64094    
 297.00 -10.00    -0.54085    
 297.00  -9.00    -0.43298    
 297.00  -8.00    -0.33502    
 297.00  -7.00    -0.26826    
 297.00  -6.00    -0.24810    
 297.00  -5.00    -0.27541    
 297.00  -4.00    -0.33276    
 297.00  -3.00    -0.38804    
 297.00  -2.00    -0.40476    
 297.00  -1.00    -0.35562    
 297.00   0.00    -0.23420    
 297.00   1.00    -0.59887E-01
 297.00   2.00     0.12641    
 297.00   3.00     0.27475    
 297.00   4.00     0.34281    
 297.00   5.00     0.31085    
 297.00   6.00     0.18942    
 297.00   7.00     0.17097E-01
 297.00   8.00    -0.15136    
 297.00   9.00    -0.26229    
 297.00  10.00    -0.28004    
 297.00  11.00    -0.19788    
 297.00  12.00    -0.39261E-01
 297.00  13.00     0.15048    
 297.00  14.00     0.31898    
 297.00  15.00     0.42308    
 297.00  16.00     0.44101    
 297.00  17.00     0.37695    
 297.00  18.00     0.25713    
 297.00  19.00     0.11938    
 297.00  20.00     0.30724E-03
 297.00  21.00    -0.75637E-01
 297.00  22.00    -0.10178    
 297.00  23.00    -0.88356E-01
 297.00  24.00    -0.56248E-01
 297.00  25.00    -0.28179E-01
 297.00  26.00    -0.20647E-01
 297.00  27.00    -0.39276E-01
 297.00  28.00    -0.78714E-01
 297.00  29.00    -0.12647    
 297.00  30.00    -0.16873    
 297.00  31.00    -0.19584    
 297.00  32.00    -0.20531    
 297.00  33.00    -0.20177    
 297.00  34.00    -0.19402    
 297.00  35.00    -0.19082    
 297.00  36.00    -0.19712    
 297.00  37.00    -0.21216    
 297.00  38.00    -0.23001    
 297.00  39.00    -0.24214    
 297.00  40.00    -0.24089    
 297.00  41.00    -0.22237    
 297.00  42.00    -0.18784    
 297.00  43.00    -0.14320    
 297.00  44.00    -0.96629E-01
 297.00  45.00    -0.56213E-01
 297.00  46.00    -0.27743E-01
 297.00  47.00    -0.13609E-01
 297.00  48.00    -0.13435E-01
 297.00  49.00    -0.25278E-01
 297.00  50.00    -0.47031E-01
