 293.00 -48.00    -0.12606    
 293.00 -47.00    -0.99772E-01
 293.00 -46.00    -0.73759E-01
 293.00 -45.00    -0.69439E-01
 293.00 -44.00    -0.99460E-01
 293.00 -43.00    -0.16174    
 293.00 -42.00    -0.23805    
 293.00 -41.00    -0.29599    
 293.00 -40.00    -0.29516    
 293.00 -39.00    -0.19614    
 293.00 -38.00     0.28553E-01
 293.00 -37.00     0.38489    
 293.00 -36.00     0.85112    
 293.00 -35.00      1.3776    
 293.00 -34.00      1.8938    
 293.00 -33.00      2.3226    
 293.00 -32.00      2.5969    
 293.00 -31.00      2.6772    
 293.00 -30.00      2.5616    
 293.00 -29.00      2.2880    
 293.00 -28.00      1.9245    
 293.00 -27.00      1.5529    
 293.00 -26.00      1.2479    
 293.00 -25.00      1.0598    
 293.00 -24.00      1.0051    
 293.00 -23.00      1.0670    
 293.00 -22.00      1.2055    
 293.00 -21.00      1.3727    
 293.00 -20.00      1.5283    
 293.00 -19.00      1.6498    
 293.00 -18.00      1.7359    
 293.00 -17.00      1.8014    
 293.00 -16.00      1.8692    
 293.00 -15.00      1.9607    
 293.00 -14.00      2.0892    
 293.00 -13.00      2.2576    
 293.00 -12.00      2.4603    
 293.00 -11.00      2.6867    
 293.00 -10.00      2.9244    
 293.00  -9.00      3.1603    
 293.00  -8.00      3.3806    
 293.00  -7.00      3.5691    
 293.00  -6.00      3.7082    
 293.00  -5.00      3.7812    
 293.00  -4.00      3.7774    
 293.00  -3.00      3.6973    
 293.00  -2.00      3.5555    
 293.00  -1.00      3.3803    
 293.00   0.00      3.2067    
 293.00   1.00      3.0679    
 293.00   2.00      2.9844    
 293.00   3.00      2.9571    
 293.00   4.00      2.9664    
 293.00   5.00      2.9770    
 293.00   6.00      2.9489    
 293.00   7.00      2.8503    
 293.00   8.00      2.6678    
 293.00   9.00      2.4119    
 293.00  10.00      2.1157    
 293.00  11.00      1.8262    
 293.00  12.00      1.5925    
 293.00  13.00      1.4536    
 293.00  14.00      1.4280    
 293.00  15.00      1.5098    
 293.00  16.00      1.6704    
 293.00  17.00      1.8652    
 293.00  18.00      2.0439    
 293.00  19.00      2.1624    
 293.00  20.00      2.1920    
 293.00  21.00      2.1261    
 293.00  22.00      1.9812    
 293.00  23.00      1.7930    
 293.00  24.00      1.6080    
 293.00  25.00      1.4729    
 293.00  26.00      1.4234    
 293.00  27.00      1.4759    
 293.00  28.00      1.6243    
 293.00  29.00      1.8421    
 293.00  30.00      2.0909    
 293.00  31.00      2.3307    
 293.00  32.00      2.5311    
 293.00  33.00      2.6794    
 293.00  34.00      2.7820    
 293.00  35.00      2.8613    
 293.00  36.00      2.9466    
 293.00  37.00      3.0641    
 293.00  38.00      3.2280    
 293.00  39.00      3.4358    
 293.00  40.00      3.6694    
 293.00  41.00      3.9005    
 293.00  42.00      4.0992    
 293.00  43.00      4.2422    
 293.00  44.00      4.3188    
 293.00  45.00      4.3326    
 293.00  46.00      4.2995    
 293.00  47.00      4.2422    
 293.00  48.00      4.1851    
 293.00  49.00      4.1471    
 293.00  50.00      4.1399    
 293.00  51.00      4.1654    
 293.00  52.00      4.2176    
 293.00  53.00      4.2850    
 293.00  54.00      4.3544    
 293.00  55.00      4.4147    
 293.00  56.00      4.4597    
 293.00  57.00      4.4886    
 293.00  58.00      4.5058    
 293.00  59.00      4.5180    
 293.00  60.00      4.5291    
 293.00  61.00      4.5393    
 293.00  62.00      4.5408    
 293.00  63.00      4.5193    
 293.00  64.00      4.4593    
 293.00  65.00      4.3477    
 293.00  66.00      4.1819    
 293.00  67.00      3.9729    
 293.00  68.00      3.7446    
 293.00  69.00      3.5299    
 293.00  70.00      3.3606    
 293.00  71.00      3.2601    
 293.00  72.00      3.2362    
 293.00  73.00      3.2808    
 293.00  74.00      3.3688    
 293.00  75.00      3.4746    
 293.00  76.00      3.5686    
 293.00  77.00      3.6306    
 293.00  78.00      3.6510    
 293.00  79.00      3.6307    
 293.00  80.00      3.5605    
 293.00  81.00      3.4369    
 293.00  82.00      3.2409    
 293.00  83.00      2.9616    
 293.00  84.00      2.5857    
 293.00  85.00      2.1132    
 293.00  86.00      1.5752    
 293.00  87.00      1.0125    
 293.00  88.00     0.48391    
 293.00  89.00     0.37256E-01
 294.00 -89.00      1.1528    
 294.00 -88.00     0.94274    
 294.00 -87.00     0.82373    
 294.00 -86.00     0.78789    
 294.00 -85.00     0.80169    
 294.00 -84.00     0.82273    
 294.00 -83.00     0.81295    
 294.00 -82.00     0.75386    
 294.00 -81.00     0.64837    
 294.00 -80.00     0.51330    
 294.00 -79.00     0.38023    
 294.00 -78.00     0.27331    
 294.00 -77.00     0.20776    
 294.00 -76.00     0.18614    
 294.00 -75.00     0.19442    
 294.00 -74.00     0.21963    
 294.00 -73.00     0.24082    
 294.00 -72.00     0.24186    
 294.00 -71.00     0.20607    
 294.00 -70.00     0.12193    
 294.00 -69.00    -0.23465E-01
 294.00 -68.00    -0.23764    
 294.00 -67.00    -0.51930    
 294.00 -66.00    -0.85213    
 294.00 -65.00     -1.2018    
 294.00 -64.00     -1.5209    
 294.00 -63.00     -1.7539    
 294.00 -62.00     -1.8530    
 294.00 -61.00     -1.7908    
 294.00 -60.00     -1.5705    
 294.00 -59.00     -1.2274    
 294.00 -58.00    -0.82152    
 294.00 -57.00    -0.42421    
 294.00 -56.00    -0.99293E-01
 294.00 -55.00     0.11131    
 294.00 -54.00     0.19597    
 294.00 -53.00     0.17284    
 294.00 -52.00     0.81261E-01
 294.00 -51.00    -0.30793E-01
 294.00 -50.00    -0.12064    
 294.00 -49.00    -0.16070    
 294.00 -48.00    -0.14353    
 294.00 -47.00    -0.80277E-01
 294.00 -46.00     0.58291E-02
 294.00 -45.00     0.87175E-01
 294.00 -44.00     0.14086    
 294.00 -43.00     0.15618    
 294.00 -42.00     0.13854    
 294.00 -41.00     0.11001    
 294.00 -40.00     0.10592    
 294.00 -39.00     0.16726    
 294.00 -38.00     0.33007    
 294.00 -37.00     0.61410    
 294.00 -36.00      1.0135    
 294.00 -35.00      1.4927    
 294.00 -34.00      1.9901    
 294.00 -33.00      2.4295    
 294.00 -32.00      2.7378    
 294.00 -31.00      2.8641    
 294.00 -30.00      2.7939    
 294.00 -29.00      2.5554    
 294.00 -28.00      2.2131    
 294.00 -27.00      1.8517    
 294.00 -26.00      1.5538    
 294.00 -25.00      1.3785    
 294.00 -24.00      1.3480    
 294.00 -23.00      1.4443    
 294.00 -22.00      1.6194    
 294.00 -21.00      1.8118    
 294.00 -20.00      1.9667    
 294.00 -19.00      2.0513    
 294.00 -18.00      2.0620    
 294.00 -17.00      2.0211    
 294.00 -16.00      1.9672    
 294.00 -15.00      1.9417    
 294.00 -14.00      1.9764    
 294.00 -13.00      2.0875    
 294.00 -12.00      2.2737    
 294.00 -11.00      2.5205    
 294.00 -10.00      2.8050    
 294.00  -9.00      3.1012    
 294.00  -8.00      3.3831    
 294.00  -7.00      3.6260    
 294.00  -6.00      3.8078    
 294.00  -5.00      3.9104    
 294.00  -4.00      3.9240    
 294.00  -3.00      3.8506    
 294.00  -2.00      3.7066    
 294.00  -1.00      3.5221    
 294.00   0.00      3.3353    
 294.00   1.00      3.1830    
 294.00   2.00      3.0899    
 294.00   3.00      3.0604    
 294.00   4.00      3.0758    
 294.00   5.00      3.0988    
 294.00   6.00      3.0847    
 294.00   7.00      2.9957    
 294.00   8.00      2.8136    
 294.00   9.00      2.5480    
 294.00  10.00      2.2349    
 294.00  11.00      1.9282    
 294.00  12.00      1.6848    
 294.00  13.00      1.5489    
 294.00  14.00      1.5395    
 294.00  15.00      1.6447    
 294.00  16.00      1.8251    
 294.00  17.00      2.0239    
 294.00  18.00      2.1822    
 294.00  19.00      2.2536    
 294.00  20.00      2.2157    
 294.00  21.00      2.0753    
 294.00  22.00      1.8653    
 294.00  23.00      1.6361    
 294.00  24.00      1.4427    
 294.00  25.00      1.3307    
 294.00  26.00      1.3264    
 294.00  27.00      1.4308    
 294.00  28.00      1.6216    
 294.00  29.00      1.8597    
 294.00  30.00      2.1005    
 294.00  31.00      2.3061    
 294.00  32.00      2.4549    
 294.00  33.00      2.5459    
 294.00  34.00      2.5983    
 294.00  35.00      2.6440    
 294.00  36.00      2.7178    
 294.00  37.00      2.8467    
 294.00  38.00      3.0417    
 294.00  39.00      3.2947    
 294.00  40.00      3.5806    
 294.00  41.00      3.8637    
 294.00  42.00      4.1076    
 294.00  43.00      4.2837    
 294.00  44.00      4.3776    
 294.00  45.00      4.3919    
 294.00  46.00      4.3441    
 294.00  47.00      4.2606    
 294.00  48.00      4.1710    
 294.00  49.00      4.0999    
 294.00  50.00      4.0634    
 294.00  51.00      4.0661    
 294.00  52.00      4.1029    
 294.00  53.00      4.1614    
 294.00  54.00      4.2271    
 294.00  55.00      4.2877    
 294.00  56.00      4.3364    
 294.00  57.00      4.3724    
 294.00  58.00      4.3998    
 294.00  59.00      4.4245    
 294.00  60.00      4.4482    
 294.00  61.00      4.4681    
 294.00  62.00      4.4736    
 294.00  63.00      4.4492    
 294.00  64.00      4.3799    
 294.00  65.00      4.2562    
 294.00  66.00      4.0804    
 294.00  67.00      3.8681    
 294.00  68.00      3.6464    
 294.00  69.00      3.4482    
 294.00  70.00      3.3021    
 294.00  71.00      3.2261    
 294.00  72.00      3.2226    
 294.00  73.00      3.2794    
 294.00  74.00      3.3706    
 294.00  75.00      3.4724    
 294.00  76.00      3.5588    
 294.00  77.00      3.6145    
 294.00  78.00      3.6328    
 294.00  79.00      3.6153    
 294.00  80.00      3.5512    
 294.00  81.00      3.4345    
 294.00  82.00      3.2430    
 294.00  83.00      2.9643    
 294.00  84.00      2.5857    
 294.00  85.00      2.1080    
 294.00  86.00      1.5660    
 294.00  87.00      1.0024    
 294.00  88.00     0.47525    
 294.00  89.00     0.32602E-01
 295.00 -89.00      1.1573    
 295.00 -88.00     0.95234    
 295.00 -87.00     0.83793    
 295.00 -86.00     0.80597    
 295.00 -85.00     0.82023    
 295.00 -84.00     0.83955    
 295.00 -83.00     0.82490    
 295.00 -82.00     0.76309    
 295.00 -81.00     0.65659    
 295.00 -80.00     0.52514    
 295.00 -79.00     0.40092    
 295.00 -78.00     0.30792    
 295.00 -77.00     0.25883    
 295.00 -76.00     0.25314    
 295.00 -75.00     0.27320    
 295.00 -74.00     0.30296    
 295.00 -73.00     0.32105    
 295.00 -72.00     0.31165    
 295.00 -71.00     0.26064    
 295.00 -70.00     0.15982    
 295.00 -69.00    -0.98023E-03
 295.00 -68.00    -0.22715    
 295.00 -67.00    -0.51682    
 295.00 -66.00    -0.85402    
 295.00 -65.00     -1.2055    
 295.00 -64.00     -1.5245    
 295.00 -63.00     -1.7560    
 295.00 -62.00     -1.8514    
 295.00 -61.00     -1.7823    
 295.00 -60.00     -1.5513    
 295.00 -59.00     -1.1943    
 295.00 -58.00    -0.77320    
 295.00 -57.00    -0.36232    
 295.00 -56.00    -0.29139E-01
 295.00 -55.00     0.18154    
 295.00 -54.00     0.25690    
 295.00 -53.00     0.21632    
 295.00 -52.00     0.10281    
 295.00 -51.00    -0.29894E-01
 295.00 -50.00    -0.13236    
 295.00 -49.00    -0.17066    
 295.00 -48.00    -0.13265    
 295.00 -47.00    -0.27485E-01
 295.00 -46.00     0.11982    
 295.00 -45.00     0.27628    
 295.00 -44.00     0.41036    
 295.00 -43.00     0.50040    
 295.00 -42.00     0.54047    
 295.00 -41.00     0.54284    
 295.00 -40.00     0.53688    
 295.00 -39.00     0.56294    
 295.00 -38.00     0.66261    
 295.00 -37.00     0.86659    
 295.00 -36.00      1.1832    
 295.00 -35.00      1.5913    
 295.00 -34.00      2.0406    
 295.00 -33.00      2.4605    
 295.00 -32.00      2.7773    
 295.00 -31.00      2.9334    
 295.00 -30.00      2.9053    
 295.00 -29.00      2.7119    
 295.00 -28.00      2.4117    
 295.00 -27.00      2.0875    
 295.00 -26.00      1.8241    
 295.00 -25.00      1.6846    
 295.00 -24.00      1.6934    
 295.00 -23.00      1.8311    
 295.00 -22.00      2.0433    
 295.00 -21.00      2.2591    
 295.00 -20.00      2.4136    
 295.00 -19.00      2.4670    
 295.00 -18.00      2.4150    
 295.00 -17.00      2.2866    
 295.00 -16.00      2.1331    
 295.00 -15.00      2.0112    
 295.00 -14.00      1.9669    
 295.00 -13.00      2.0255    
 295.00 -12.00      2.1880    
 295.00 -11.00      2.4355    
 295.00 -10.00      2.7369    
 295.00  -9.00      3.0570    
 295.00  -8.00      3.3625    
 295.00  -7.00      3.6251    
 295.00  -6.00      3.8224    
 295.00  -5.00      3.9385    
 295.00  -4.00      3.9657    
 295.00  -3.00      3.9069    
 295.00  -2.00      3.7776    
 295.00  -1.00      3.6060    
 295.00   0.00      3.4287    
 295.00   1.00      3.2820    
 295.00   2.00      3.1921    
 295.00   3.00      3.1655    
 295.00   4.00      3.1856    
 295.00   5.00      3.2154    
 295.00   6.00      3.2083    
 295.00   7.00      3.1234    
 295.00   8.00      2.9396    
 295.00   9.00      2.6650    
 295.00  10.00      2.3376    
 295.00  11.00      2.0158    
 295.00  12.00      1.7621    
 295.00  13.00      1.6250    
 295.00  14.00      1.6238    
 295.00  15.00      1.7424    
 295.00  16.00      1.9332    
 295.00  17.00      2.1303    
 295.00  18.00      2.2676    
 295.00  19.00      2.2975    
 295.00  20.00      2.2031    
 295.00  21.00      2.0024    
 295.00  22.00      1.7424    
 295.00  23.00      1.4857    
 295.00  24.00      1.2939    
 295.00  25.00      1.2113    
 295.00  26.00      1.2551    
 295.00  27.00      1.4127    
 295.00  28.00      1.6468    
 295.00  29.00      1.9071    
 295.00  30.00      2.1438    
 295.00  31.00      2.3211    
 295.00  32.00      2.4249    
 295.00  33.00      2.4654    
 295.00  34.00      2.4723    
 295.00  35.00      2.4861    
 295.00  36.00      2.5458    
 295.00  37.00      2.6791    
 295.00  38.00      2.8941    
 295.00  39.00      3.1783    
 295.00  40.00      3.5010    
 295.00  41.00      3.8217    
 295.00  42.00      4.0991    
 295.00  43.00      4.3009    
 295.00  44.00      4.4102    
 295.00  45.00      4.4286    
 295.00  46.00      4.3744    
 295.00  47.00      4.2759    
 295.00  48.00      4.1660    
 295.00  49.00      4.0731    
 295.00  50.00      4.0158    
 295.00  51.00      4.0007    
 295.00  52.00      4.0228    
 295.00  53.00      4.0693    
 295.00  54.00      4.1250    
 295.00  55.00      4.1773    
 295.00  56.00      4.2199    
 295.00  57.00      4.2531    
 295.00  58.00      4.2816    
 295.00  59.00      4.3110    
 295.00  60.00      4.3417    
 295.00  61.00      4.3682    
 295.00  62.00      4.3776    
 295.00  63.00      4.3526    
 295.00  64.00      4.2787    
 295.00  65.00      4.1490    
 295.00  66.00      3.9696    
 295.00  67.00      3.7599    
 295.00  68.00      3.5496    
 295.00  69.00      3.3706    
 295.00  70.00      3.2489    
 295.00  71.00      3.1972    
 295.00  72.00      3.2130    
 295.00  73.00      3.2807    
 295.00  74.00      3.3739    
 295.00  75.00      3.4708    
 295.00  76.00      3.5494    
 295.00  77.00      3.5987    
 295.00  78.00      3.6151    
 295.00  79.00      3.6004    
 295.00  80.00      3.5425    
 295.00  81.00      3.4323    
 295.00  82.00      3.2448    
 295.00  83.00      2.9662    
 295.00  84.00      2.5845    
 295.00  85.00      2.1017    
 295.00  86.00      1.5558    
 295.00  87.00     0.99153    
 295.00  88.00     0.46622    
 295.00  89.00     0.27813E-01
 296.00 -89.00      1.1618    
 296.00 -88.00     0.96196    
 296.00 -87.00     0.85199    
 296.00 -86.00     0.82363    
 296.00 -85.00     0.83799    
 296.00 -84.00     0.85526    
 296.00 -83.00     0.83565    
 296.00 -82.00     0.77123    
 296.00 -81.00     0.66403    
 296.00 -80.00     0.53671    
 296.00 -79.00     0.42188    
 296.00 -78.00     0.34317    
 296.00 -77.00     0.31058    
 296.00 -76.00     0.32034    
 296.00 -75.00     0.35113    
 296.00 -74.00     0.38387    
 296.00 -73.00     0.39690    
 296.00 -72.00     0.37510    
 296.00 -71.00     0.30735    
 296.00 -70.00     0.18929    
 296.00 -69.00     0.13973E-01
 296.00 -68.00    -0.22155    
 296.00 -67.00    -0.51485    
 296.00 -66.00    -0.85069    
 296.00 -65.00     -1.1976    
 296.00 -64.00     -1.5110    
 296.00 -63.00     -1.7370    
 296.00 -62.00     -1.8277    
 296.00 -61.00     -1.7539    
 296.00 -60.00     -1.5180    
 296.00 -59.00     -1.1557    
 296.00 -58.00    -0.72954    
 296.00 -57.00    -0.31501    
 296.00 -56.00     0.18669E-01
 296.00 -55.00     0.22552    
 296.00 -54.00     0.29265    
 296.00 -53.00     0.24098    
 296.00 -52.00     0.11655    
 296.00 -51.00    -0.22768E-01
 296.00 -50.00    -0.12312    
 296.00 -49.00    -0.14681    
 296.00 -48.00    -0.79228E-01
 296.00 -47.00     0.71008E-01
 296.00 -46.00     0.27695    
 296.00 -45.00     0.50144    
 296.00 -44.00     0.70673    
 296.00 -43.00     0.86310    
 296.00 -42.00     0.95586    
 296.00 -41.00     0.98899    
 296.00 -40.00     0.98560    
 296.00 -39.00     0.98329    
 296.00 -38.00      1.0257    
 296.00 -37.00      1.1506    
 296.00 -36.00      1.3771    
 296.00 -35.00      1.6973    
 296.00 -34.00      2.0733    
 296.00 -33.00      2.4439    
 296.00 -32.00      2.7395    
 296.00 -31.00      2.9016    
 296.00 -30.00      2.9013    
 296.00 -29.00      2.7501    
 296.00 -28.00      2.4989    
 296.00 -27.00      2.2255    
 296.00 -26.00      2.0119    
 296.00 -25.00      1.9204    
 296.00 -24.00      1.9747    
 296.00 -23.00      2.1541    
 296.00 -22.00      2.4005    
 296.00 -21.00      2.6373    
 296.00 -20.00      2.7945    
 296.00 -19.00      2.8291    
 296.00 -18.00      2.7372    
 296.00 -17.00      2.5530    
 296.00 -16.00      2.3362    
 296.00 -15.00      2.1532    
 296.00 -14.00      2.0581    
 296.00 -13.00      2.0803    
 296.00 -12.00      2.2202    
 296.00 -11.00      2.4546    
 296.00 -10.00      2.7464    
 296.00  -9.00      3.0557    
 296.00  -8.00      3.3472    
 296.00  -7.00      3.5944    
 296.00  -6.00      3.7794    
 296.00  -5.00      3.8912    
 296.00  -4.00      3.9250    
 296.00  -3.00      3.8835    
 296.00  -2.00      3.7791    
 296.00  -1.00      3.6344    
 296.00   0.00      3.4805    
 296.00   1.00      3.3504    
 296.00   2.00      3.2697    
 296.00   3.00      3.2470    
 296.00   4.00      3.2687    
 296.00   5.00      3.3004    
 296.00   6.00      3.2962    
 296.00   7.00      3.2138    
 296.00   8.00      3.0294    
 296.00   9.00      2.7493    
 296.00  10.00      2.4111    
 296.00  11.00      2.0753    
 296.00  12.00      1.8081    
 296.00  13.00      1.6615    
 296.00  14.00      1.6562    
 296.00  15.00      1.7745    
 296.00  16.00      1.9644    
 296.00  17.00      2.1539    
 296.00  18.00      2.2724    
 296.00  19.00      2.2714    
 296.00  20.00      2.1379    
 296.00  21.00      1.8980    
 296.00  22.00      1.6086    
 296.00  23.00      1.3409    
 296.00  24.00      1.1606    
 296.00  25.00      1.1102    
 296.00  26.00      1.1990    
 296.00  27.00      1.4032    
 296.00  28.00      1.6741    
 296.00  29.00      1.9528    
 296.00  30.00      2.1866    
 296.00  31.00      2.3418    
 296.00  32.00      2.4112    
 296.00  33.00      2.4136    
 296.00  34.00      2.3868    
 296.00  35.00      2.3768    
 296.00  36.00      2.4250    
 296.00  37.00      2.5584    
 296.00  38.00      2.7829    
 296.00  39.00      3.0828    
 296.00  40.00      3.4247    
 296.00  41.00      3.7657    
 296.00  42.00      4.0627    
 296.00  43.00      4.2818    
 296.00  44.00      4.4049    
 296.00  45.00      4.4325    
 296.00  46.00      4.3820    
 296.00  47.00      4.2825    
 296.00  48.00      4.1670    
 296.00  49.00      4.0654    
 296.00  50.00      3.9972    
 296.00  51.00      3.9696    
 296.00  52.00      3.9776    
 296.00  53.00      4.0085    
 296.00  54.00      4.0471    
 296.00  55.00      4.0819    
 296.00  56.00      4.1083    
 296.00  57.00      4.1284    
 296.00  58.00      4.1488    
 296.00  59.00      4.1756    
 296.00  60.00      4.2084    
 296.00  61.00      4.2393    
 296.00  62.00      4.2532    
 296.00  63.00      4.2308    
 296.00  64.00      4.1576    
 296.00  65.00      4.0284    
 296.00  66.00      3.8521    
 296.00  67.00      3.6509    
 296.00  68.00      3.4563    
 296.00  69.00      3.2991    
 296.00  70.00      3.2023    
 296.00  71.00      3.1741    
 296.00  72.00      3.2077    
 296.00  73.00      3.2846    
 296.00  74.00      3.3785    
 296.00  75.00      3.4697    
 296.00  76.00      3.5402    
 296.00  77.00      3.5834    
 296.00  78.00      3.5981    
 296.00  79.00      3.5864    
 296.00  80.00      3.5344    
 296.00  81.00      3.4304    
 296.00  82.00      3.2463    
 296.00  83.00      2.9673    
 296.00  84.00      2.5822    
 296.00  85.00      2.0944    
 296.00  86.00      1.5446    
 296.00  87.00     0.98003    
 296.00  88.00     0.45682    
 296.00  89.00     0.22890E-01
 297.00 -89.00      1.1664    
 297.00 -88.00     0.97159    
 297.00 -87.00     0.86592    
 297.00 -86.00     0.84086    
 297.00 -85.00     0.85500    
 297.00 -84.00     0.86992    
 297.00 -83.00     0.84536    
 297.00 -82.00     0.77842    
 297.00 -81.00     0.67083    
 297.00 -80.00     0.54810    
 297.00 -79.00     0.44313    
 297.00 -78.00     0.37892    
 297.00 -77.00     0.36265    
 297.00 -76.00     0.38717    
 297.00 -75.00     0.42740    
 297.00 -74.00     0.46133    
 297.00 -73.00     0.46725    
 297.00 -72.00     0.43110    
 297.00 -71.00     0.34524    
 297.00 -70.00     0.20962    
 297.00 -69.00     0.20967E-01
 297.00 -68.00    -0.22097    
 297.00 -67.00    -0.51325    
 297.00 -66.00    -0.84185    
 297.00 -65.00     -1.1781    
 297.00 -64.00     -1.4803    
 297.00 -63.00     -1.6974    
 297.00 -62.00     -1.7827    
 297.00 -61.00     -1.7074    
 297.00 -60.00     -1.4732    
 297.00 -59.00     -1.1148    
 297.00 -58.00    -0.69400    
 297.00 -57.00    -0.28557    
 297.00 -56.00     0.41588E-01
 297.00 -55.00     0.24208    
 297.00 -54.00     0.30401    
 297.00 -53.00     0.24991    
 297.00 -52.00     0.12793    
 297.00 -51.00    -0.19458E-02
 297.00 -50.00    -0.84170E-01
 297.00 -49.00    -0.80219E-01
 297.00 -48.00     0.24403E-01
 297.00 -47.00     0.22007    
 297.00 -46.00     0.47786    
 297.00 -45.00     0.75809    
 297.00 -44.00      1.0197    
 297.00 -43.00      1.2287    
 297.00 -42.00      1.3652    
 297.00 -41.00      1.4270    
 297.00 -40.00      1.4316    
 297.00 -39.00      1.4118    
 297.00 -38.00      1.4098    
 297.00 -37.00      1.4655    
 297.00 -36.00      1.6047    
 297.00 -35.00      1.8298    
 297.00 -34.00      2.1150    
 297.00 -33.00      2.4107    
 297.00 -32.00      2.6559    
 297.00 -31.00      2.7961    
 297.00 -30.00      2.8015    
 297.00 -29.00      2.6784    
 297.00 -28.00      2.4706    
 297.00 -27.00      2.2480    
 297.00 -26.00      2.0862    
 297.00 -25.00      2.0429    
 297.00 -24.00      2.1395    
 297.00 -23.00      2.3536    
 297.00 -22.00      2.6258    
 297.00 -21.00      2.8789    
 297.00 -20.00      3.0417    
 297.00 -19.00      3.0716    
 297.00 -18.00      2.9663    
 297.00 -17.00      2.7633    
 297.00 -16.00      2.5262    
 297.00 -15.00      2.3252    
 297.00 -14.00      2.2159    
 297.00 -13.00      2.2268    
 297.00 -12.00      2.3551    
 297.00 -11.00      2.5730    
 297.00 -10.00      2.8397    
 297.00  -9.00      3.1143    
 297.00  -8.00      3.3645    
 297.00  -7.00      3.5698    
 297.00  -6.00      3.7200    
 297.00  -5.00      3.8111    
 297.00  -4.00      3.8417    
 297.00  -3.00      3.8139    
 297.00  -2.00      3.7347    
 297.00  -1.00      3.6194    
 297.00   0.00      3.4915    
 297.00   1.00      3.3794    
 297.00   2.00      3.3072    
 297.00   3.00      3.2861    
 297.00   4.00      3.3066    
 297.00   5.00      3.3384    
 297.00   6.00      3.3376    
 297.00   7.00      3.2608    
 297.00   8.00      3.0813    
 297.00   9.00      2.8017    
 297.00  10.00      2.4570    
 297.00  11.00      2.1074    
 297.00  12.00      1.8211    
 297.00  13.00      1.6536    
 297.00  14.00      1.6289    
 297.00  15.00      1.7308    
 297.00  16.00      1.9067    
 297.00  17.00      2.0826    
 297.00  18.00      2.1857    
 297.00  19.00      2.1666    
 297.00  20.00      2.0143    
 297.00  21.00      1.7590    
 297.00  22.00      1.4627    
 297.00  23.00      1.2009    
 297.00  24.00      1.0402    
 297.00  25.00      1.0205    
 297.00  26.00      1.1451    
 297.00  27.00      1.3824    
 297.00  28.00      1.6765    
 297.00  29.00      1.9644    
 297.00  30.00      2.1930    
 297.00  31.00      2.3320    
 297.00  32.00      2.3798    
 297.00  33.00      2.3611    
 297.00  34.00      2.3179    
 297.00  35.00      2.2980    
 297.00  36.00      2.3422    
 297.00  37.00      2.4753    
 297.00  38.00      2.7010    
 297.00  39.00      3.0022    
 297.00  40.00      3.3457    
 297.00  41.00      3.6895    
 297.00  42.00      3.9921    
 297.00  43.00      4.2205    
 297.00  44.00      4.3565    
 297.00  45.00      4.3992    
 297.00  46.00      4.3642    
 297.00  47.00      4.2782    
 297.00  48.00      4.1724    
 297.00  49.00      4.0753    
 297.00  50.00      4.0058    
 297.00  51.00      3.9703    
 297.00  52.00      3.9641    
 297.00  53.00      3.9750    
 297.00  54.00      3.9891    
 297.00  55.00      3.9970    
 297.00  56.00      3.9970    
 297.00  57.00      3.9947    
 297.00  58.00      3.9987    
 297.00  59.00      4.0167    
 297.00  60.00      4.0477    
 297.00  61.00      4.0820    
 297.00  62.00      4.1019    
 297.00  63.00      4.0862    
 297.00  64.00      4.0195    
 297.00  65.00      3.8974    
 297.00  66.00      3.7308    
 297.00  67.00      3.5438    
 297.00  68.00      3.3686    
 297.00  69.00      3.2351    
 297.00  70.00      3.1634    
 297.00  71.00      3.1574    
 297.00  72.00      3.2069    
 297.00  73.00      3.2910    
 297.00  74.00      3.3842    
 297.00  75.00      3.4690    
 297.00  76.00      3.5313    
 297.00  77.00      3.5686    
 297.00  78.00      3.5820    
 297.00  79.00      3.5733    
 297.00  80.00      3.5272    
 297.00  81.00      3.4288    
 297.00  82.00      3.2476    
 297.00  83.00      2.9676    
 297.00  84.00      2.5786    
 297.00  85.00      2.0859    
 297.00  86.00      1.5325    
 297.00  87.00     0.96783    
 297.00  88.00     0.44705    
 297.00  89.00     0.17837E-01
 298.00 -89.00      1.1711    
 298.00 -88.00     0.98123    
 298.00 -87.00     0.87971    
 298.00 -86.00     0.85765    
 298.00 -85.00     0.87130    
 298.00 -84.00     0.88359    
 298.00 -83.00     0.85418    
 298.00 -82.00     0.78478    
 298.00 -81.00     0.67713    
 298.00 -80.00     0.55944    
 298.00 -79.00     0.46468    
 298.00 -78.00     0.41503    
 298.00 -77.00     0.41471    
 298.00 -76.00     0.45303    
 298.00 -75.00     0.50122    
 298.00 -74.00     0.53443    
 298.00 -73.00     0.53113    
 298.00 -72.00     0.47874    
 298.00 -71.00     0.37357    
 298.00 -70.00     0.22027    
 298.00 -69.00     0.19752E-01
 298.00 -68.00    -0.22543    
 298.00 -67.00    -0.51193    
 298.00 -66.00    -0.82745    
 298.00 -65.00     -1.1470    
 298.00 -64.00     -1.4330    
 298.00 -63.00     -1.6381    
 298.00 -62.00     -1.7181    
 298.00 -61.00     -1.6448    
 298.00 -60.00     -1.4191    
 298.00 -59.00     -1.0740    
 298.00 -58.00    -0.66875    
 298.00 -57.00    -0.27548    
 298.00 -56.00     0.39261E-01
 298.00 -55.00     0.23224    
 298.00 -54.00     0.29346    
 298.00 -53.00     0.24692    
 298.00 -52.00     0.14165    
 298.00 -51.00     0.37495E-01
 298.00 -50.00    -0.11233E-01
 298.00 -49.00     0.31745E-01
 298.00 -48.00     0.17826    
 298.00 -47.00     0.41618    
 298.00 -46.00     0.71479    
 298.00 -45.00      1.0337    
 298.00 -44.00      1.3321    
 298.00 -43.00      1.5757    
 298.00 -42.00      1.7433    
 298.00 -41.00      1.8302    
 298.00 -40.00      1.8484    
 298.00 -39.00      1.8253    
 298.00 -38.00      1.7974    
 298.00 -37.00      1.8020    
 298.00 -36.00      1.8669    
 298.00 -35.00      2.0006    
 298.00 -34.00      2.1878    
 298.00 -33.00      2.3915    
 298.00 -32.00      2.5622    
 298.00 -31.00      2.6539    
 298.00 -30.00      2.6399    
 298.00 -29.00      2.5247    
 298.00 -28.00      2.3454    
 298.00 -27.00      2.1632    
 298.00 -26.00      2.0448    
 298.00 -25.00      2.0409    
 298.00 -24.00      2.1686    
 298.00 -23.00      2.4044    
 298.00 -22.00      2.6903    
 298.00 -21.00      2.9515    
 298.00 -20.00      3.1202    
 298.00 -19.00      3.1569    
 298.00 -18.00      3.0617    
 298.00 -17.00      2.8736    
 298.00 -16.00      2.6563    
 298.00 -15.00      2.4781    
 298.00 -14.00      2.3913    
 298.00 -13.00      2.4192    
 298.00 -12.00      2.5535    
 298.00 -11.00      2.7617    
 298.00 -10.00      3.0012    
 298.00  -9.00      3.2326    
 298.00  -8.00      3.4293    
 298.00  -7.00      3.5795    
 298.00  -6.00      3.6822    
 298.00  -5.00      3.7410    
 298.00  -4.00      3.7582    
 298.00  -3.00      3.7348    
 298.00  -2.00      3.6722    
 298.00  -1.00      3.5782    
 298.00   0.00      3.4691    
 298.00   1.00      3.3684    
 298.00   2.00      3.2998    
 298.00   3.00      3.2773    
 298.00   4.00      3.2960    
 298.00   5.00      3.3299    
 298.00   6.00      3.3372    
 298.00   7.00      3.2729    
 298.00   8.00      3.1063    
 298.00   9.00      2.8342    
 298.00  10.00      2.4871    
 298.00  11.00      2.1229    
 298.00  12.00      1.8111    
 298.00  13.00      1.6107    
 298.00  14.00      1.5507    
 298.00  15.00      1.6199    
 298.00  16.00      1.7687    
 298.00  17.00      1.9247    
 298.00  18.00      2.0151    
 298.00  19.00      1.9899    
 298.00  20.00      1.8379    
 298.00  21.00      1.5893    
 298.00  22.00      1.3066    
 298.00  23.00      1.0645    
 298.00  24.00     0.92802    
 298.00  25.00     0.93348    
 298.00  26.00      1.0800    
 298.00  27.00      1.3319    
 298.00  28.00      1.6312    
 298.00  29.00      1.9152    
 298.00  30.00      2.1340    
 298.00  31.00      2.2618    
 298.00  32.00      2.3016    
 298.00  33.00      2.2809    
 298.00  34.00      2.2420    
 298.00  35.00      2.2299    
 298.00  36.00      2.2814    
 298.00  37.00      2.4172    
 298.00  38.00      2.6389    
 298.00  39.00      2.9297    
 298.00  40.00      3.2592    
 298.00  41.00      3.5905    
 298.00  42.00      3.8865    
 298.00  43.00      4.1178    
 298.00  44.00      4.2668    
 298.00  45.00      4.3313    
 298.00  46.00      4.3230    
 298.00  47.00      4.2644    
 298.00  48.00      4.1821    
 298.00  49.00      4.1011    
 298.00  50.00      4.0377    
 298.00  51.00      3.9975    
 298.00  52.00      3.9756    
 298.00  53.00      3.9613    
 298.00  54.00      3.9433    
 298.00  55.00      3.9155    
 298.00  56.00      3.8804    
 298.00  57.00      3.8474    
 298.00  58.00      3.8287    
 298.00  59.00      3.8332    
 298.00  60.00      3.8603    
 298.00  61.00      3.8982    
 298.00  62.00      3.9268    
 298.00  63.00      3.9223    
 298.00  64.00      3.8682    
 298.00  65.00      3.7599    
 298.00  66.00      3.6094    
 298.00  67.00      3.4416    
 298.00  68.00      3.2892    
 298.00  69.00      3.1805    
 298.00  70.00      3.1332    
 298.00  71.00      3.1477    
 298.00  72.00      3.2107    
 298.00  73.00      3.3000    
 298.00  74.00      3.3908    
 298.00  75.00      3.4685    
 298.00  76.00      3.5225    
 298.00  77.00      3.5543    
 298.00  78.00      3.5668    
 298.00  79.00      3.5614    
 298.00  80.00      3.5208    
 298.00  81.00      3.4277    
 298.00  82.00      3.2487    
 298.00  83.00      2.9671    
 298.00  84.00      2.5738    
 298.00  85.00      2.0762    
 298.00  86.00      1.5195    
 298.00  87.00     0.95493    
 298.00  88.00     0.43691    
 298.00  89.00     0.12655E-01
 299.00 -89.00      1.1759    
 299.00 -88.00     0.99086    
 299.00 -87.00     0.89337    
 299.00 -86.00     0.87400    
 299.00 -85.00     0.88690    
 299.00 -84.00     0.89632    
 299.00 -83.00     0.86226    
 299.00 -82.00     0.79048    
 299.00 -81.00     0.68307    
 299.00 -80.00     0.57081    
 299.00 -79.00     0.48654    
 299.00 -78.00     0.45138    
 299.00 -77.00     0.46643    
 299.00 -76.00     0.51740    
 299.00 -75.00     0.57189    
 299.00 -74.00     0.60234    
 299.00 -73.00     0.58773    
 299.00 -72.00     0.51728    
 299.00 -71.00     0.39181    
 299.00 -70.00     0.22098    
 299.00 -69.00     0.10270E-01
 299.00 -68.00    -0.23486    
 299.00 -67.00    -0.51081    
 299.00 -66.00    -0.80763    
 299.00 -65.00     -1.1048    
 299.00 -64.00     -1.3700    
 299.00 -63.00     -1.5607    
 299.00 -62.00     -1.6359    
 299.00 -61.00     -1.5684    
 299.00 -60.00     -1.3582    
 299.00 -59.00     -1.0352    
 299.00 -58.00    -0.65467    
 299.00 -57.00    -0.28437    
 299.00 -56.00     0.13450E-01
 299.00 -55.00     0.19906    
 299.00 -54.00     0.26497    
 299.00 -53.00     0.23621    
 299.00 -52.00     0.16127    
 299.00 -51.00     0.97500E-01
 299.00 -50.00     0.95113E-01
 299.00 -49.00     0.18527    
 299.00 -48.00     0.37486    
 299.00 -47.00     0.64805    
 299.00 -46.00     0.97271    
 299.00 -45.00      1.3099    
 299.00 -44.00      1.6221    
 299.00 -43.00      1.8795    
 299.00 -42.00      2.0638    
 299.00 -41.00      2.1705    
 299.00 -40.00      2.2081    
 299.00 -39.00      2.1971    
 299.00 -38.00      2.1657    
 299.00 -37.00      2.1440    
 299.00 -36.00      2.1562    
 299.00 -35.00      2.2128    
 299.00 -34.00      2.3064    
 299.00 -33.00      2.4118    
 299.00 -32.00      2.4933    
 299.00 -31.00      2.5163    
 299.00 -30.00      2.4612    
 299.00 -29.00      2.3330    
 299.00 -28.00      2.1643    
 299.00 -27.00      2.0073    
 299.00 -26.00      1.9185    
 299.00 -25.00      1.9401    
 299.00 -24.00      2.0842    
 299.00 -23.00      2.3265    
 299.00 -22.00      2.6118    
 299.00 -21.00      2.8711    
 299.00 -20.00      3.0426    
 299.00 -19.00      3.0918    
 299.00 -18.00      3.0218    
 299.00 -17.00      2.8716    
 299.00 -16.00      2.7022    
 299.00 -15.00      2.5763    
 299.00 -14.00      2.5395    
 299.00 -13.00      2.6075    
 299.00 -12.00      2.7655    
 299.00 -11.00      2.9766    
 299.00 -10.00      3.1972    
 299.00  -9.00      3.3908    
 299.00  -8.00      3.5373    
 299.00  -7.00      3.6335    
 299.00  -6.00      3.6872    
 299.00  -5.00      3.7089    
 299.00  -4.00      3.7045    
 299.00  -3.00      3.6738    
 299.00  -2.00      3.6143    
 299.00  -1.00      3.5275    
 299.00   0.00      3.4246    
 299.00   1.00      3.3258    
 299.00   2.00      3.2552    
 299.00   3.00      3.2295    
 299.00   4.00      3.2485    
 299.00   5.00      3.2895    
 299.00   6.00      3.3116    
 299.00   7.00      3.2673    
 299.00   8.00      3.1204    
 299.00   9.00      2.8612    
 299.00  10.00      2.5141    
 299.00  11.00      2.1341    
 299.00  12.00      1.7910    
 299.00  13.00      1.5479    
 299.00  14.00      1.4402    
 299.00  15.00      1.4636    
 299.00  16.00      1.5747    
 299.00  17.00      1.7051    
 299.00  18.00      1.7841    
 299.00  19.00      1.7614    
 299.00  20.00      1.6236    
 299.00  21.00      1.3983    
 299.00  22.00      1.1437    
 299.00  23.00     0.93040    
 299.00  24.00     0.81854    
 299.00  25.00     0.84047    
 299.00  26.00     0.99261    
 299.00  27.00      1.2390    
 299.00  28.00      1.5240    
 299.00  29.00      1.7901    
 299.00  30.00      1.9934    
 299.00  31.00      2.1143    
 299.00  32.00      2.1593    
 299.00  33.00      2.1557    
 299.00  34.00      2.1419    
 299.00  35.00      2.1563    
 299.00  36.00      2.2281    
 299.00  37.00      2.3721    
 299.00  38.00      2.5873    
 299.00  39.00      2.8592    
 299.00  40.00      3.1631    
 299.00  41.00      3.4699    
 299.00  42.00      3.7503    
 299.00  43.00      3.9801    
 299.00  44.00      4.1436    
 299.00  45.00      4.2363    
 299.00  46.00      4.2648    
 299.00  47.00      4.2451    
 299.00  48.00      4.1970    
 299.00  49.00      4.1403    
 299.00  50.00      4.0875    
 299.00  51.00      4.0430    
 299.00  52.00      4.0024    
 299.00  53.00      3.9572    
 299.00  54.00      3.8998    
 299.00  55.00      3.8288    
 299.00  56.00      3.7516    
 299.00  57.00      3.6822    
 299.00  58.00      3.6364    
 299.00  59.00      3.6252    
 299.00  60.00      3.6480    
 299.00  61.00      3.6912    
 299.00  62.00      3.7320    
 299.00  63.00      3.7440    
 299.00  64.00      3.7086    
 299.00  65.00      3.6204    
 299.00  66.00      3.4916    
 299.00  67.00      3.3473    
 299.00  68.00      3.2202    
 299.00  69.00      3.1369    
 299.00  70.00      3.1128    
 299.00  71.00      3.1454    
 299.00  72.00      3.2192    
 299.00  73.00      3.3113    
 299.00  74.00      3.3983    
 299.00  75.00      3.4680    
 299.00  76.00      3.5140    
 299.00  77.00      3.5407    
 299.00  78.00      3.5527    
 299.00  79.00      3.5507    
 299.00  80.00      3.5156    
 299.00  81.00      3.4271    
 299.00  82.00      3.2496    
 299.00  83.00      2.9658    
 299.00  84.00      2.5677    
 299.00  85.00      2.0655    
 299.00  86.00      1.5054    
 299.00  87.00     0.94131    
 299.00  88.00     0.42642    
 299.00  89.00     0.73483E-02
 300.00 -89.00      1.1806    
 300.00 -88.00      1.0005    
 300.00 -87.00     0.90692    
 300.00 -86.00     0.88991    
 300.00 -85.00     0.90184    
 300.00 -84.00     0.90819    
 300.00 -83.00     0.86977    
 300.00 -82.00     0.79564    
 300.00 -81.00     0.68883    
 300.00 -80.00     0.58234    
 300.00 -79.00     0.50875    
 300.00 -78.00     0.48785    
 300.00 -77.00     0.51751    
 300.00 -76.00     0.57980    
 300.00 -75.00     0.63878    
 300.00 -74.00     0.66440    
 300.00 -73.00     0.63640    
 300.00 -72.00     0.54624    
 300.00 -71.00     0.39970    
 300.00 -70.00     0.21172    
 300.00 -69.00    -0.73261E-02
 300.00 -68.00    -0.24907    
 300.00 -67.00    -0.50988    
 300.00 -66.00    -0.78275    
 300.00 -65.00     -1.0524    
 300.00 -64.00     -1.2930    
 300.00 -63.00     -1.4674    
 300.00 -62.00     -1.5387    
 300.00 -61.00     -1.4808    
 300.00 -60.00     -1.2924    
 300.00 -59.00    -0.99927    
 300.00 -58.00    -0.65139    
 300.00 -57.00    -0.31020    
 300.00 -56.00    -0.32206E-01
 300.00 -55.00     0.14734    
 300.00 -54.00     0.22368    
 300.00 -53.00     0.22214    
 300.00 -52.00     0.18910    
 300.00 -51.00     0.17718    
 300.00 -50.00     0.22994    
 300.00 -49.00     0.37105    
 300.00 -48.00     0.60071    
 300.00 -47.00     0.89866    
 300.00 -46.00      1.2321    
 300.00 -45.00      1.5654    
 300.00 -44.00      1.8678    
 300.00 -43.00      2.1176    
 300.00 -42.00      2.3034    
 300.00 -41.00      2.4239    
 300.00 -40.00      2.4859    
 300.00 -39.00      2.5024    
 300.00 -38.00      2.4912    
 300.00 -37.00      2.4711    
 300.00 -36.00      2.4581    
 300.00 -35.00      2.4605    
 300.00 -34.00      2.4755    
 300.00 -33.00      2.4885    
 300.00 -32.00      2.4778    
 300.00 -31.00      2.4223    
 300.00 -30.00      2.3119    
 300.00 -29.00      2.1554    
 300.00 -28.00      1.9818    
 300.00 -27.00      1.8355    
 300.00 -26.00      1.7626    
 300.00 -25.00      1.7963    
 300.00 -24.00      1.9431    
 300.00 -23.00      2.1781    
 300.00 -22.00      2.4505    
 300.00 -21.00      2.6979    
 300.00 -20.00      2.8664    
 300.00 -19.00      2.9274    
 300.00 -18.00      2.8870    
 300.00 -17.00      2.7832    
 300.00 -16.00      2.6724    
 300.00 -15.00      2.6105    
 300.00 -14.00      2.6349    
 300.00 -13.00      2.7536    
 300.00 -12.00      2.9456    
 300.00 -11.00      3.1709    
 300.00 -10.00      3.3854    
 300.00  -9.00      3.5554    
 300.00  -8.00      3.6661    
 300.00  -7.00      3.7207    
 300.00  -6.00      3.7339    
 300.00  -5.00      3.7210    
 300.00  -4.00      3.6908    
 300.00  -3.00      3.6432    
 300.00  -2.00      3.5734    
 300.00  -1.00      3.4801    
 300.00   0.00      3.3713    
 300.00   1.00      3.2666    
 300.00   2.00      3.1907    
 300.00   3.00      3.1630    
 300.00   4.00      3.1861    
 300.00   5.00      3.2391    
 300.00   6.00      3.2804    
 300.00   7.00      3.2594    
 300.00   8.00      3.1341    
 300.00   9.00      2.8884    
 300.00  10.00      2.5410    
 300.00  11.00      2.1438    
 300.00  12.00      1.7668    
 300.00  13.00      1.4770    
 300.00  14.00      1.3163    
 300.00  15.00      1.2879    
 300.00  16.00      1.3559    
 300.00  17.00      1.4575    
 300.00  18.00      1.5250    
 300.00  19.00      1.5085    
 300.00  20.00      1.3922    
 300.00  21.00      1.1984    
 300.00  22.00     0.97901    
 300.00  23.00     0.79722    
 300.00  24.00     0.70665    
 300.00  25.00     0.73501    
 300.00  26.00     0.87730    
 300.00  27.00      1.1000    
 300.00  28.00      1.3537    
 300.00  29.00      1.5895    
 300.00  30.00      1.7726    
 300.00  31.00      1.8902    
 300.00  32.00      1.9516    
 300.00  33.00      1.9817    
 300.00  34.00      2.0113    
 300.00  35.00      2.0686    
 300.00  36.00      2.1724    
 300.00  37.00      2.3302    
 300.00  38.00      2.5386    
 300.00  39.00      2.7865    
 300.00  40.00      3.0573    
 300.00  41.00      3.3322    
 300.00  42.00      3.5917    
 300.00  43.00      3.8184    
 300.00  44.00      3.9987    
 300.00  45.00      4.1253    
 300.00  46.00      4.1982    
 300.00  47.00      4.2251    
 300.00  48.00      4.2178    
 300.00  49.00      4.1891    
 300.00  50.00      4.1477    
 300.00  51.00      4.0966    
 300.00  52.00      4.0327    
 300.00  53.00      3.9507    
 300.00  54.00      3.8477    
 300.00  55.00      3.7278    
 300.00  56.00      3.6039    
 300.00  57.00      3.4952    
 300.00  58.00      3.4210    
 300.00  59.00      3.3942    
 300.00  60.00      3.4143    
 300.00  61.00      3.4657    
 300.00  62.00      3.5231    
 300.00  63.00      3.5569    
 300.00  64.00      3.5460    
 300.00  65.00      3.4837    
 300.00  66.00      3.3815    
 300.00  67.00      3.2642    
 300.00  68.00      3.1638    
 300.00  69.00      3.1055    
 300.00  70.00      3.1027    
 300.00  71.00      3.1508    
 300.00  72.00      3.2325    
 300.00  73.00      3.3248    
 300.00  74.00      3.4065    
 300.00  75.00      3.4677    
 300.00  76.00      3.5057    
 300.00  77.00      3.5279    
 300.00  78.00      3.5399    
 300.00  79.00      3.5415    
 300.00  80.00      3.5115    
 300.00  81.00      3.4270    
 300.00  82.00      3.2504    
 300.00  83.00      2.9637    
 300.00  84.00      2.5604    
 300.00  85.00      2.0535    
 300.00  86.00      1.4904    
 300.00  87.00     0.92695    
 300.00  88.00     0.41556    
 300.00  89.00     0.19187E-02
 301.00 -89.00      1.1855    
 301.00 -88.00      1.0101    
 301.00 -87.00     0.92036    
 301.00 -86.00     0.90538    
 301.00 -85.00     0.91617    
 301.00 -84.00     0.91927    
 301.00 -83.00     0.87684    
 301.00 -82.00     0.80042    
 301.00 -81.00     0.69453    
 301.00 -80.00     0.59416    
 301.00 -79.00     0.53134    
 301.00 -78.00     0.52434    
 301.00 -77.00     0.56770    
 301.00 -76.00     0.63983    
 301.00 -75.00     0.70140    
 301.00 -74.00     0.72007    
 301.00 -73.00     0.67672    
 301.00 -72.00     0.56538    
 301.00 -71.00     0.39725    
 301.00 -70.00     0.19273    
 301.00 -69.00    -0.32660E-01
 301.00 -68.00    -0.26773    
 301.00 -67.00    -0.50912    
 301.00 -66.00    -0.75336    
 301.00 -65.00    -0.99121    
 301.00 -64.00     -1.2039    
 301.00 -63.00     -1.3608    
 301.00 -62.00     -1.4294    
 301.00 -61.00     -1.3848    
 301.00 -60.00     -1.2237    
 301.00 -59.00    -0.96693    
 301.00 -58.00    -0.65760    
 301.00 -57.00    -0.34965    
 301.00 -56.00    -0.92641E-01
 301.00 -55.00     0.83148E-01
 301.00 -54.00     0.17547    
 301.00 -53.00     0.20898    
 301.00 -52.00     0.22632    
 301.00 -51.00     0.27338    
 301.00 -50.00     0.38509    
 301.00 -49.00     0.57600    
 301.00 -48.00     0.83860    
 301.00 -47.00      1.1481    
 301.00 -46.00      1.4720    
 301.00 -45.00      1.7800    
 301.00 -44.00      2.0506    
 301.00 -43.00      2.2732    
 301.00 -42.00      2.4467    
 301.00 -41.00      2.5753    
 301.00 -40.00      2.6653    
 301.00 -39.00      2.7229    
 301.00 -38.00      2.7535    
 301.00 -37.00      2.7622    
 301.00 -36.00      2.7533    
 301.00 -35.00      2.7292    
 301.00 -34.00      2.6885    
 301.00 -33.00      2.6255    
 301.00 -32.00      2.5314    
 301.00 -31.00      2.3996    
 301.00 -30.00      2.2309    
 301.00 -29.00      2.0392    
 301.00 -28.00      1.8523    
 301.00 -27.00      1.7073    
 301.00 -26.00      1.6409    
 301.00 -25.00      1.6774    
 301.00 -24.00      1.8178    
 301.00 -23.00      2.0370    
 301.00 -22.00      2.2884    
 301.00 -21.00      2.5169    
 301.00 -20.00      2.6763    
 301.00 -19.00      2.7438    
 301.00 -18.00      2.7279    
 301.00 -17.00      2.6647    
 301.00 -16.00      2.6057    
 301.00 -15.00      2.6000    
 301.00 -14.00      2.6778    
 301.00 -13.00      2.8414    
 301.00 -12.00      3.0657    
 301.00 -11.00      3.3090    
 301.00 -10.00      3.5275    
 301.00  -9.00      3.6897    
 301.00  -8.00      3.7833    
 301.00  -7.00      3.8151    
 301.00  -6.00      3.8025    
 301.00  -5.00      3.7638    
 301.00  -4.00      3.7094    
 301.00  -3.00      3.6402    
 301.00  -2.00      3.5520    
 301.00  -1.00      3.4433    
 301.00   0.00      3.3224    
 301.00   1.00      3.2091    
 301.00   2.00      3.1290    
 301.00   3.00      3.1026    
 301.00   4.00      3.1329    
 301.00   5.00      3.1990    
 301.00   6.00      3.2576    
 301.00   7.00      3.2549    
 301.00   8.00      3.1447    
 301.00   9.00      2.9064    
 301.00  10.00      2.5548    
 301.00  11.00      2.1398    
 301.00  12.00      1.7316    
 301.00  13.00      1.3997    
 301.00  14.00      1.1910    
 301.00  15.00      1.1150    
 301.00  16.00      1.1421    
 301.00  17.00      1.2155    
 301.00  18.00      1.2712    
 301.00  19.00      1.2603    
 301.00  20.00      1.1650    
 301.00  21.00      1.0026    
 301.00  22.00     0.81752    
 301.00  23.00     0.66454    
 301.00  24.00     0.58955    
 301.00  25.00     0.61526    
 301.00  26.00     0.73589    
 301.00  27.00     0.92203    
 301.00  28.00      1.1328    
 301.00  29.00      1.3303    
 301.00  30.00      1.4904    
 301.00  31.00      1.6079    
 301.00  32.00      1.6941    
 301.00  33.00      1.7694    
 301.00  34.00      1.8551    
 301.00  35.00      1.9665    
 301.00  36.00      2.1104    
 301.00  37.00      2.2860    
 301.00  38.00      2.4879    
 301.00  39.00      2.7093    
 301.00  40.00      2.9435    
 301.00  41.00      3.1835    
 301.00  42.00      3.4210    
 301.00  43.00      3.6456    
 301.00  44.00      3.8456    
 301.00  45.00      4.0102    
 301.00  46.00      4.1320    
 301.00  47.00      4.2090    
 301.00  48.00      4.2438    
 301.00  49.00      4.2423    
 301.00  50.00      4.2091    
 301.00  51.00      4.1466    
 301.00  52.00      4.0537    
 301.00  53.00      3.9294    
 301.00  54.00      3.7762    
 301.00  55.00      3.6043    
 301.00  56.00      3.4323    
 301.00  57.00      3.2841    
 301.00  58.00      3.1830    
 301.00  59.00      3.1431    
 301.00  60.00      3.1639    
 301.00  61.00      3.2278    
 301.00  62.00      3.3066    
 301.00  63.00      3.3673    
 301.00  64.00      3.3861    
 301.00  65.00      3.3546    
 301.00  66.00      3.2828    
 301.00  67.00      3.1948    
