 102.00 -20.00     0.43734    
 102.00 -19.00     0.43767    
 102.00 -18.00     0.50822    
 102.00 -17.00     0.64577    
 102.00 -16.00     0.80906    
 102.00 -15.00     0.93581    
 102.00 -14.00     0.97032    
 102.00 -13.00     0.88996    
 102.00 -12.00     0.71830    
 102.00 -11.00     0.51885    
 102.00 -10.00     0.37083    
 102.00  -9.00     0.33673    
 102.00  -8.00     0.43480    
 102.00  -7.00     0.62783    
 102.00  -6.00     0.83354    
 102.00  -5.00     0.95265    
 102.00  -4.00     0.90429    
 102.00  -3.00     0.65512    
 102.00  -2.00     0.23161    
 102.00  -1.00    -0.28862    
 102.00   0.00    -0.80248    
 102.00   1.00     -1.2141    
 102.00   2.00     -1.4624    
 102.00   3.00     -1.5354    
 102.00   4.00     -1.4668    
 102.00   5.00     -1.3188    
 102.00   6.00     -1.1590    
 102.00   7.00     -1.0393    
 102.00   8.00    -0.98297    
 102.00   9.00    -0.98373    
 102.00  10.00     -1.0128    
 102.00  11.00     -1.0316    
 102.00  12.00     -1.0056    
 102.00  13.00    -0.91461    
 102.00  14.00    -0.76056    
 102.00  15.00    -0.56943    
 102.00  16.00    -0.38898    
 102.00  17.00    -0.28067    
 102.00  18.00    -0.30611    
 102.00  19.00    -0.50940    
 102.00  20.00    -0.89924    
 102.00  21.00     -1.4368    
 102.00  22.00     -2.0353    
 102.00  23.00     -2.5758    
 102.00  24.00     -2.9367    
 102.00  25.00     -3.0305    
 102.00  26.00     -2.8362    
 102.00  27.00     -2.4140    
 102.00  28.00     -1.8949    
 102.00  29.00     -1.4456    
 102.00  30.00     -1.2176    
 102.00  31.00     -1.2974    
 102.00  32.00     -1.6755    
 102.00  33.00     -2.2456    
 102.00  34.00     -2.8372    
 102.00  35.00     -3.2695    
 102.00  36.00     -3.4111    
 102.00  37.00     -3.2219    
 102.00  38.00     -2.7664    
 102.00  39.00     -2.1906    
 102.00  40.00     -1.6747    
 102.00  41.00     -1.3764    
 102.00  42.00     -1.3848    
 102.00  43.00     -1.7001    
 102.00  44.00     -2.2423    
 102.00  45.00     -2.8828    
 102.00  46.00     -3.4856    
 102.00  47.00     -3.9418    
 102.00  48.00     -4.1881    
 102.00  49.00     -4.2060    
 102.00  50.00     -4.0076    
 102.00  51.00     -3.6167    
 102.00  52.00     -3.0576    
 102.00  53.00     -2.3515    
 102.00  54.00     -1.5248    
 102.00  55.00    -0.61707    
 102.00  56.00     0.31296    
 102.00  57.00      1.1930    
 102.00  58.00      1.9500    
 102.00  59.00      2.5289    
 102.00  60.00      2.9043    
 102.00  61.00      3.0854    
 102.00  62.00      3.1097    
 102.00  63.00      3.0268    
 102.00  64.00      2.8844    
 102.00  65.00      2.7172    
 102.00  66.00      2.5455    
 102.00  67.00      2.3805    
 102.00  68.00      2.2319    
 102.00  69.00      2.1143    
 102.00  70.00      2.0430    
 102.00  71.00      2.0253    
 102.00  72.00      2.0516    
 102.00  73.00      2.0887    
 102.00  74.00      2.0836    
 102.00  75.00      1.9823    
 102.00  76.00      1.7446    
 102.00  77.00      1.3608    
 102.00  78.00     0.86520    
 102.00  79.00     0.31919    
 102.00  80.00    -0.20205    
 102.00  81.00    -0.63894    
 102.00  82.00    -0.96097    
 102.00  83.00     -1.1797    
 102.00  84.00     -1.3309    
 102.00  85.00     -1.4522    
 102.00  86.00     -1.5802    
 102.00  87.00     -1.7109    
 102.00  88.00     -1.8102    
 102.00  89.00     -1.8327    
 103.00 -89.00      1.1169    
 103.00 -88.00      1.4326    
 103.00 -87.00      1.7194    
 103.00 -86.00      1.9484    
 103.00 -85.00      2.1131    
 103.00 -84.00      2.2176    
 103.00 -83.00      2.2681    
 103.00 -82.00      2.2732    
 103.00 -81.00      2.2363    
 103.00 -80.00      2.1568    
 103.00 -79.00      2.0356    
 103.00 -78.00      1.8874    
 103.00 -77.00      1.7438    
 103.00 -76.00      1.6495    
 103.00 -75.00      1.6514    
 103.00 -74.00      1.7759    
 103.00 -73.00      2.0181    
 103.00 -72.00      2.3389    
 103.00 -71.00      2.6567    
 103.00 -70.00      2.8785    
 103.00 -69.00      2.9201    
 103.00 -68.00      2.7338    
 103.00 -67.00      2.3260    
 103.00 -66.00      1.7540    
 103.00 -65.00      1.1118    
 103.00 -64.00     0.50281    
 103.00 -63.00     0.10589E-01
 103.00 -62.00    -0.32266    
 103.00 -61.00    -0.50080    
 103.00 -60.00    -0.56679    
 103.00 -59.00    -0.58227    
 103.00 -58.00    -0.60708    
 103.00 -57.00    -0.68227    
 103.00 -56.00    -0.82461    
 103.00 -55.00     -1.0282    
 103.00 -54.00     -1.2750    
 103.00 -53.00     -1.5438    
 103.00 -52.00     -1.8147    
 103.00 -51.00     -2.0712    
 103.00 -50.00     -2.2963    
 103.00 -49.00     -2.4699    
 103.00 -48.00     -2.5696    
 103.00 -47.00     -2.5765    
 103.00 -46.00     -2.4816    
 103.00 -45.00     -2.2914    
 103.00 -44.00     -2.0286    
 103.00 -43.00     -1.7244    
 103.00 -42.00     -1.4090    
 103.00 -41.00     -1.1009    
 103.00 -40.00    -0.80229    
 103.00 -39.00    -0.50328    
 103.00 -38.00    -0.19260    
 103.00 -37.00     0.12908    
 103.00 -36.00     0.44073    
 103.00 -35.00     0.70215    
 103.00 -34.00     0.86611    
 103.00 -33.00     0.89708    
 103.00 -32.00     0.78893    
 103.00 -31.00     0.57323    
 103.00 -30.00     0.31336    
 103.00 -29.00     0.85423E-01
 103.00 -28.00    -0.47135E-01
 103.00 -27.00    -0.55219E-01
 103.00 -26.00     0.47001E-01
 103.00 -25.00     0.20988    
 103.00 -24.00     0.36988    
 103.00 -23.00     0.47597    
 103.00 -22.00     0.50985    
 103.00 -21.00     0.49137    
 103.00 -20.00     0.46693    
 103.00 -19.00     0.48614    
 103.00 -18.00     0.57695    
 103.00 -17.00     0.73061    
 103.00 -16.00     0.90327    
 103.00 -15.00      1.0339    
 103.00 -14.00      1.0709    
 103.00 -13.00     0.99600    
 103.00 -12.00     0.83422    
 103.00 -11.00     0.64558    
 103.00 -10.00     0.50112    
 103.00  -9.00     0.45300    
 103.00  -8.00     0.51134    
 103.00  -7.00     0.63732    
 103.00  -6.00     0.75602    
 103.00  -5.00     0.78384    
 103.00  -4.00     0.65997    
 103.00  -3.00     0.36940    
 103.00  -2.00    -0.50993E-01
 103.00  -1.00    -0.52506    
 103.00   0.00    -0.96319    
 103.00   1.00     -1.2909    
 103.00   2.00     -1.4700    
 103.00   3.00     -1.5046    
 103.00   4.00     -1.4330    
 103.00   5.00     -1.3091    
 103.00   6.00     -1.1820    
 103.00   7.00     -1.0821    
 103.00   8.00     -1.0159    
 103.00   9.00    -0.97084    
 103.00  10.00    -0.92549    
 103.00  11.00    -0.85953    
 103.00  12.00    -0.76127    
 103.00  13.00    -0.63080    
 103.00  14.00    -0.48014    
 103.00  15.00    -0.33222    
 103.00  16.00    -0.21929    
 103.00  17.00    -0.17998    
 103.00  18.00    -0.25292    
 103.00  19.00    -0.46622    
 103.00  20.00    -0.82411    
 103.00  21.00     -1.2954    
 103.00  22.00     -1.8103    
 103.00  23.00     -2.2697    
 103.00  24.00     -2.5690    
 103.00  25.00     -2.6304    
 103.00  26.00     -2.4325    
 103.00  27.00     -2.0278    
 103.00  28.00     -1.5353    
 103.00  29.00     -1.1109    
 103.00  30.00    -0.90019    
 103.00  31.00    -0.99073    
 103.00  32.00     -1.3801    
 103.00  33.00     -1.9721    
 103.00  34.00     -2.6054    
 103.00  35.00     -3.1038    
 103.00  36.00     -3.3332    
 103.00  37.00     -3.2449    
 103.00  38.00     -2.8898    
 103.00  39.00     -2.3996    
 103.00  40.00     -1.9431    
 103.00  41.00     -1.6715    
 103.00  42.00     -1.6746    
 103.00  43.00     -1.9586    
 103.00  44.00     -2.4534    
 103.00  45.00     -3.0412    
 103.00  46.00     -3.5949    
 103.00  47.00     -4.0114    
 103.00  48.00     -4.2293    
 103.00  49.00     -4.2288    
 103.00  50.00     -4.0184    
 103.00  51.00     -3.6190    
 103.00  52.00     -3.0519    
 103.00  53.00     -2.3377    
 103.00  54.00     -1.5032    
 103.00  55.00    -0.58931    
 103.00  56.00     0.34382    
 103.00  57.00      1.2230    
 103.00  58.00      1.9754    
 103.00  59.00      2.5472    
 103.00  60.00      2.9147    
 103.00  61.00      3.0889    
 103.00  62.00      3.1089    
 103.00  63.00      3.0249    
 103.00  64.00      2.8844    
 103.00  65.00      2.7210    
 103.00  66.00      2.5532    
 103.00  67.00      2.3906    
 103.00  68.00      2.2413    
 103.00  69.00      2.1195    
 103.00  70.00      2.0401    
 103.00  71.00      2.0117    
 103.00  72.00      2.0262    
 103.00  73.00      2.0521    
 103.00  74.00      2.0382    
 103.00  75.00      1.9314    
 103.00  76.00      1.6918    
 103.00  77.00      1.3094    
 103.00  78.00     0.81713    
 103.00  79.00     0.27562    
 103.00  80.00    -0.24035    
 103.00  81.00    -0.67119    
 103.00  82.00    -0.98692    
 103.00  83.00     -1.1987    
 103.00  84.00     -1.3422    
 103.00  85.00     -1.4549    
 103.00  86.00     -1.5762    
 103.00  87.00     -1.7033    
 103.00  88.00     -1.8018    
 103.00  89.00     -1.8274    
 104.00 -89.00      1.1144    
 104.00 -88.00      1.4289    
 104.00 -87.00      1.7160    
 104.00 -86.00      1.9455    
 104.00 -85.00      2.1107    
 104.00 -84.00      2.2156    
 104.00 -83.00      2.2650    
 104.00 -82.00      2.2703    
 104.00 -81.00      2.2320    
 104.00 -80.00      2.1497    
 104.00 -79.00      2.0249    
 104.00 -78.00      1.8726    
 104.00 -77.00      1.7250    
 104.00 -76.00      1.6277    
 104.00 -75.00      1.6279    
 104.00 -74.00      1.7519    
 104.00 -73.00      1.9940    
 104.00 -72.00      2.3143    
 104.00 -71.00      2.6302    
 104.00 -70.00      2.8486    
 104.00 -69.00      2.8855    
 104.00 -68.00      2.6944    
 104.00 -67.00      2.2826    
 104.00 -66.00      1.7085    
 104.00 -65.00      1.0658    
 104.00 -64.00     0.45705    
 104.00 -63.00    -0.36287E-01
 104.00 -62.00    -0.37381    
 104.00 -61.00    -0.56053    
 104.00 -60.00    -0.63903    
 104.00 -59.00    -0.66897    
 104.00 -58.00    -0.70661    
 104.00 -57.00    -0.78895    
 104.00 -56.00    -0.92941    
 104.00 -55.00     -1.1203    
 104.00 -54.00     -1.3446    
 104.00 -53.00     -1.5846    
 104.00 -52.00     -1.8265    
 104.00 -51.00     -2.0604    
 104.00 -50.00     -2.2755    
 104.00 -49.00     -2.4552    
 104.00 -48.00     -2.5776    
 104.00 -47.00     -2.6191    
 104.00 -46.00     -2.5634    
 104.00 -45.00     -2.4070    
 104.00 -44.00     -2.1632    
 104.00 -43.00     -1.8566    
 104.00 -42.00     -1.5158    
 104.00 -41.00     -1.1633    
 104.00 -40.00    -0.81068    
 104.00 -39.00    -0.46004    
 104.00 -38.00    -0.11179    
 104.00 -37.00     0.22551    
 104.00 -36.00     0.52922    
 104.00 -35.00     0.76430    
 104.00 -34.00     0.89395    
 104.00 -33.00     0.89510    
 104.00 -32.00     0.77208    
 104.00 -31.00     0.56158    
 104.00 -30.00     0.32522    
 104.00 -29.00     0.13122    
 104.00 -28.00     0.31955E-01
 104.00 -27.00     0.46206E-01
 104.00 -26.00     0.15380    
 104.00 -25.00     0.30530    
 104.00 -24.00     0.44310    
 104.00 -23.00     0.52519    
 104.00 -22.00     0.54181    
 104.00 -21.00     0.51761    
 104.00 -20.00     0.49860    
 104.00 -19.00     0.52964    
 104.00 -18.00     0.63226    
 104.00 -17.00     0.79289    
 104.00 -16.00     0.96692    
 104.00 -15.00      1.0970    
 104.00 -14.00      1.1375    
 104.00 -13.00      1.0749    
 104.00 -12.00     0.93412    
 104.00 -11.00     0.76837    
 104.00 -10.00     0.63613    
 104.00  -9.00     0.57539    
 104.00  -8.00     0.58595    
 104.00  -7.00     0.62778    
 104.00  -6.00     0.63632    
 104.00  -5.00     0.54857    
 104.00  -4.00     0.32902    
 104.00  -3.00    -0.14867E-01
 104.00  -2.00    -0.43404    
 104.00  -1.00    -0.85485    
 104.00   0.00     -1.2045    
 104.00   1.00     -1.4345    
 104.00   2.00     -1.5331    
 104.00   3.00     -1.5233    
 104.00   4.00     -1.4476    
 104.00   5.00     -1.3494    
 104.00   6.00     -1.2560    
 104.00   7.00     -1.1735    
 104.00   8.00     -1.0902    
 104.00   9.00    -0.98905    
 104.00  10.00    -0.85947    
 104.00  11.00    -0.70447    
 104.00  12.00    -0.54014    
 104.00  13.00    -0.38920    
 104.00  14.00    -0.27316    
 104.00  15.00    -0.20734    
 104.00  16.00    -0.20115    
 104.00  17.00    -0.26175    
 104.00  18.00    -0.39718    
 104.00  19.00    -0.61489    
 104.00  20.00    -0.91417    
 104.00  21.00     -1.2755    
 104.00  22.00     -1.6529    
 104.00  23.00     -1.9763    
 104.00  24.00     -2.1658    
 104.00  25.00     -2.1583    
 104.00  26.00     -1.9340    
 104.00  27.00     -1.5350    
 104.00  28.00     -1.0637    
 104.00  29.00    -0.65946    
 104.00  30.00    -0.45731    
 104.00  31.00    -0.54366    
 104.00  32.00    -0.92397    
 104.00  33.00     -1.5158    
 104.00  34.00     -2.1717    
 104.00  35.00     -2.7246    
 104.00  36.00     -3.0412    
 104.00  37.00     -3.0646    
 104.00  38.00     -2.8300    
 104.00  39.00     -2.4511    
 104.00  40.00     -2.0803    
 104.00  41.00     -1.8585    
 104.00  42.00     -1.8731    
 104.00  43.00     -2.1357    
 104.00  44.00     -2.5869    
 104.00  45.00     -3.1217    
 104.00  46.00     -3.6243    
 104.00  47.00     -3.9994    
 104.00  48.00     -4.1886    
 104.00  49.00     -4.1712    
 104.00  50.00     -3.9527    
 104.00  51.00     -3.5501    
 104.00  52.00     -2.9824    
 104.00  53.00     -2.2690    
 104.00  54.00     -1.4371    
 104.00  55.00    -0.52923    
 104.00  56.00     0.39394    
 104.00  57.00      1.2592    
 104.00  58.00      1.9956    
 104.00  59.00      2.5512    
 104.00  60.00      2.9056    
 104.00  61.00      3.0715    
 104.00  62.00      3.0895    
 104.00  63.00      3.0092    
 104.00  64.00      2.8765    
 104.00  65.00      2.7226    
 104.00  66.00      2.5632    
 104.00  67.00      2.4056    
 104.00  68.00      2.2563    
 104.00  69.00      2.1291    
 104.00  70.00      2.0394    
 104.00  71.00      1.9975    
 104.00  72.00      1.9972    
 104.00  73.00      2.0095    
 104.00  74.00      1.9853    
 104.00  75.00      1.8724    
 104.00  76.00      1.6316    
 104.00  77.00      1.2517    
 104.00  78.00     0.76468    
 104.00  79.00     0.22960    
 104.00  80.00    -0.27941    
 104.00  81.00    -0.70298    
 104.00  82.00     -1.0118    
 104.00  83.00     -1.2164    
 104.00  84.00     -1.3523    
 104.00  85.00     -1.4571    
 104.00  86.00     -1.5719    
 104.00  87.00     -1.6955    
 104.00  88.00     -1.7935    
 104.00  89.00     -1.8221    
 105.00 -89.00      1.1117    
 105.00 -88.00      1.4250    
 105.00 -87.00      1.7123    
 105.00 -86.00      1.9424    
 105.00 -85.00      2.1080    
 105.00 -84.00      2.2132    
 105.00 -83.00      2.2614    
 105.00 -82.00      2.2668    
 105.00 -81.00      2.2268    
 105.00 -80.00      2.1414    
 105.00 -79.00      2.0124    
 105.00 -78.00      1.8552    
 105.00 -77.00      1.7025    
 105.00 -76.00      1.6004    
 105.00 -75.00      1.5969    
 105.00 -74.00      1.7178    
 105.00 -73.00      1.9574    
 105.00 -72.00      2.2749    
 105.00 -71.00      2.5879    
 105.00 -70.00      2.8028    
 105.00 -69.00      2.8367    
 105.00 -68.00      2.6443    
 105.00 -67.00      2.2340    
 105.00 -66.00      1.6647    
 105.00 -65.00      1.0291    
 105.00 -64.00     0.42789    
 105.00 -63.00    -0.60371E-01
 105.00 -62.00    -0.39825    
 105.00 -61.00    -0.59240    
 105.00 -60.00    -0.68533    
 105.00 -59.00    -0.73450    
 105.00 -58.00    -0.79180    
 105.00 -57.00    -0.88903    
 105.00 -56.00     -1.0349    
 105.00 -55.00     -1.2187    
 105.00 -54.00     -1.4233    
 105.00 -53.00     -1.6344    
 105.00 -52.00     -1.8436    
 105.00 -51.00     -2.0486    
 105.00 -50.00     -2.2452    
 105.00 -49.00     -2.4217    
 105.00 -48.00     -2.5567    
 105.00 -47.00     -2.6238    
 105.00 -46.00     -2.5994    
 105.00 -45.00     -2.4717    
 105.00 -44.00     -2.2451    
 105.00 -43.00     -1.9390    
 105.00 -42.00     -1.5808    
 105.00 -41.00     -1.1976    
 105.00 -40.00    -0.80927    
 105.00 -39.00    -0.42840    
 105.00 -38.00    -0.64162E-01
 105.00 -37.00     0.27048    
 105.00 -36.00     0.55456    
 105.00 -35.00     0.76067    
 105.00 -34.00     0.86331    
 105.00 -33.00     0.85075    
 105.00 -32.00     0.73493    
 105.00 -31.00     0.55365    
 105.00 -30.00     0.36255    
 105.00 -29.00     0.21866    
 105.00 -28.00     0.16152    
 105.00 -27.00     0.19969    
 105.00 -26.00     0.30870    
 105.00 -25.00     0.44180    
 105.00 -24.00     0.54967    
 105.00 -23.00     0.60089    
 105.00 -22.00     0.59445    
 105.00 -21.00     0.55900    
 105.00 -20.00     0.53887    
 105.00 -19.00     0.57312    
 105.00 -18.00     0.67675    
 105.00 -17.00     0.83249    
 105.00 -16.00     0.99699    
 105.00 -15.00      1.1188    
 105.00 -14.00      1.1601    
 105.00 -13.00      1.1124    
 105.00 -12.00     0.99935    
 105.00 -11.00     0.86483    
 105.00 -10.00     0.75169    
 105.00  -9.00     0.68091    
 105.00  -8.00     0.64043    
 105.00  -7.00     0.58909    
 105.00  -6.00     0.47449    
 105.00  -5.00     0.25693    
 105.00  -4.00    -0.70753E-01
 105.00  -3.00    -0.47636    
 105.00  -2.00    -0.89764    
 105.00  -1.00     -1.2639    
 105.00   0.00     -1.5206    
 105.00   1.00     -1.6472    
 105.00   2.00     -1.6605    
 105.00   3.00     -1.6030    
 105.00   4.00     -1.5220    
 105.00   5.00     -1.4493    
 105.00   6.00     -1.3900    
 105.00   7.00     -1.3249    
 105.00   8.00     -1.2249    
 105.00   9.00     -1.0694    
 105.00  10.00    -0.86078    
 105.00  11.00    -0.62723    
 105.00  12.00    -0.41389    
 105.00  13.00    -0.26606    
 105.00  14.00    -0.21277    
 105.00  15.00    -0.25825    
 105.00  16.00    -0.38434    
 105.00  17.00    -0.56194    
 105.00  18.00    -0.76463    
 105.00  19.00    -0.97722    
 105.00  20.00     -1.1946    
 105.00  21.00     -1.4118    
 105.00  22.00     -1.6117    
 105.00  23.00     -1.7582    
 105.00  24.00     -1.8014    
 105.00  25.00     -1.6958    
 105.00  26.00     -1.4236    
 105.00  27.00     -1.0151    
 105.00  28.00    -0.55277    
 105.00  29.00    -0.15550    
 105.00  30.00     0.55087E-01
 105.00  31.00    -0.50735E-02
 105.00  32.00    -0.35045    
 105.00  33.00    -0.91527    
 105.00  34.00     -1.5701    
 105.00  35.00     -2.1609    
 105.00  36.00     -2.5580    
 105.00  37.00     -2.6962    
 105.00  38.00     -2.5942    
 105.00  39.00     -2.3441    
 105.00  40.00     -2.0781    
 105.00  41.00     -1.9234    
 105.00  42.00     -1.9625    
 105.00  43.00     -2.2120    
 105.00  44.00     -2.6237    
 105.00  45.00     -3.1068    
 105.00  46.00     -3.5591    
 105.00  47.00     -3.8942    
 105.00  48.00     -4.0580    
 105.00  49.00     -4.0287    
 105.00  50.00     -3.8088    
 105.00  51.00     -3.4111    
 105.00  52.00     -2.8518    
 105.00  53.00     -2.1494    
 105.00  54.00     -1.3315    
 105.00  55.00    -0.44171    
 105.00  56.00     0.45895    
 105.00  57.00      1.2984    
 105.00  58.00      2.0082    
 105.00  59.00      2.5401    
 105.00  60.00      2.8771    
 105.00  61.00      3.0345    
 105.00  62.00      3.0531    
 105.00  63.00      2.9816    
 105.00  64.00      2.8627    
 105.00  65.00      2.7240    
 105.00  66.00      2.5774    
 105.00  67.00      2.4273    
 105.00  68.00      2.2785    
 105.00  69.00      2.1447    
 105.00  70.00      2.0422    
 105.00  71.00      1.9839    
 105.00  72.00      1.9658    
 105.00  73.00      1.9620    
 105.00  74.00      1.9258    
 105.00  75.00      1.8062    
 105.00  76.00      1.5643    
 105.00  77.00      1.1881    
 105.00  78.00     0.70805    
 105.00  79.00     0.18121    
 105.00  80.00    -0.31920    
 105.00  81.00    -0.73431    
 105.00  82.00     -1.0356    
 105.00  83.00     -1.2329    
 105.00  84.00     -1.3612    
 105.00  85.00     -1.4587    
 105.00  86.00     -1.5674    
 105.00  87.00     -1.6876    
 105.00  88.00     -1.7851    
 105.00  89.00     -1.8168    
 106.00 -89.00      1.1090    
 106.00 -88.00      1.4209    
 106.00 -87.00      1.7083    
 106.00 -86.00      1.9390    
 106.00 -85.00      2.1051    
 106.00 -84.00      2.2104    
 106.00 -83.00      2.2575    
 106.00 -82.00      2.2628    
 106.00 -81.00      2.2209    
 106.00 -80.00      2.1320    
 106.00 -79.00      1.9983    
 106.00 -78.00      1.8353    
 106.00 -77.00      1.6762    
 106.00 -76.00      1.5676    
 106.00 -75.00      1.5582    
 106.00 -74.00      1.6736    
 106.00 -73.00      1.9082    
 106.00 -72.00      2.2210    
 106.00 -71.00      2.5298    
 106.00 -70.00      2.7417    
 106.00 -69.00      2.7745    
 106.00 -68.00      2.5846    
 106.00 -67.00      2.1813    
 106.00 -66.00      1.6233    
 106.00 -65.00      1.0024    
 106.00 -64.00     0.41591    
 106.00 -63.00    -0.61057E-01
 106.00 -62.00    -0.39505    
 106.00 -61.00    -0.59499    
 106.00 -60.00    -0.70365    
 106.00 -59.00    -0.77615    
 106.00 -58.00    -0.85948    
 106.00 -57.00    -0.97932    
 106.00 -56.00     -1.1383    
 106.00 -55.00     -1.3216    
 106.00 -54.00     -1.5108    
 106.00 -53.00     -1.6939    
 106.00 -52.00     -1.8680    
 106.00 -51.00     -2.0379    
 106.00 -50.00     -2.2069    
 106.00 -49.00     -2.3685    
 106.00 -48.00     -2.5038    
 106.00 -47.00     -2.5840    
 106.00 -46.00     -2.5805    
 106.00 -45.00     -2.4742    
 106.00 -44.00     -2.2628    
 106.00 -43.00     -1.9613    
 106.00 -42.00     -1.5968    
 106.00 -41.00     -1.2003    
 106.00 -40.00    -0.79874    
 106.00 -39.00    -0.41198    
 106.00 -38.00    -0.54524E-01
 106.00 -37.00     0.25995    
 106.00 -36.00     0.51518    
 106.00 -35.00     0.69295    
 106.00 -34.00     0.77872    
 106.00 -33.00     0.76993    
 106.00 -32.00     0.68253    
 106.00 -31.00     0.55143    
 106.00 -30.00     0.42280    
 106.00 -29.00     0.34033    
 106.00 -28.00     0.33036    
 106.00 -27.00     0.39248    
 106.00 -26.00     0.50007    
 106.00 -25.00     0.61136    
 106.00 -24.00     0.68687    
 106.00 -23.00     0.70605    
 106.00 -22.00     0.67582    
 106.00 -21.00     0.62718    
 106.00 -20.00     0.60121    
 106.00 -19.00     0.63033    
 106.00 -18.00     0.72329    
 106.00 -17.00     0.86052    
 106.00 -16.00      1.0021    
 106.00 -15.00      1.1046    
 106.00 -14.00      1.1394    
 106.00 -13.00      1.1037    
 106.00 -12.00      1.0191    
 106.00 -11.00     0.91877    
 106.00 -10.00     0.82832    
 106.00  -9.00     0.75043    
 106.00  -8.00     0.66048    
 106.00  -7.00     0.51621    
 106.00  -6.00     0.27774    
 106.00  -5.00    -0.70730E-01
 106.00  -4.00    -0.50770    
 106.00  -3.00    -0.97619    
 106.00  -2.00     -1.4009    
 106.00  -1.00     -1.7142    
 106.00   0.00     -1.8800    
 106.00   1.00     -1.9055    
 106.00   2.00     -1.8355    
 106.00   3.00     -1.7318    
 106.00   4.00     -1.6465    
 106.00   5.00     -1.6010    
 106.00   6.00     -1.5790    
 106.00   7.00     -1.5380    
 106.00   8.00     -1.4322    
 106.00   9.00     -1.2382    
 106.00  10.00    -0.97071    
 106.00  11.00    -0.68158    
 106.00  12.00    -0.44263    
 106.00  13.00    -0.31904    
 106.00  14.00    -0.34500    
 106.00  15.00    -0.51183    
 106.00  16.00    -0.77296    
 106.00  17.00     -1.0631    
 106.00  18.00     -1.3222    
 106.00  19.00     -1.5140    
 106.00  20.00     -1.6306    
 106.00  21.00     -1.6836    
 106.00  22.00     -1.6864    
 106.00  23.00     -1.6385    
 106.00  24.00     -1.5207    
 106.00  25.00     -1.3051    
 106.00  26.00    -0.97542    
 106.00  27.00    -0.54842    
 106.00  28.00    -0.84585E-01
 106.00  29.00     0.31952    
 106.00  30.00     0.55701    
 106.00  31.00     0.54628    
 106.00  32.00     0.26261    
 106.00  33.00    -0.24734    
 106.00  34.00    -0.87527    
 106.00  35.00     -1.4833    
 106.00  36.00     -1.9470    
 106.00  37.00     -2.1943    
 106.00  38.00     -2.2259    
 106.00  39.00     -2.1104    
 106.00  40.00     -1.9573    
 106.00  41.00     -1.8775    
 106.00  42.00     -1.9474    
 106.00  43.00     -2.1875    
 106.00  44.00     -2.5617    
 106.00  45.00     -2.9947    
 106.00  46.00     -3.3986    
 106.00  47.00     -3.6972    
 106.00  48.00     -3.8409    
 106.00  49.00     -3.8071    
 106.00  50.00     -3.5942    
 106.00  51.00     -3.2108    
 106.00  52.00     -2.6698    
 106.00  53.00     -1.9887    
 106.00  54.00     -1.1955    
 106.00  55.00    -0.33479    
 106.00  56.00     0.53240    
 106.00  57.00      1.3358    
 106.00  58.00      2.0106    
 106.00  59.00      2.5129    
 106.00  60.00      2.8298    
 106.00  61.00      2.9790    
 106.00  62.00      3.0017    
 106.00  63.00      2.9441    
 106.00  64.00      2.8450    
 106.00  65.00      2.7269    
 106.00  66.00      2.5972    
 106.00  67.00      2.4569    
 106.00  68.00      2.3090    
 106.00  69.00      2.1672    
 106.00  70.00      2.0497    
 106.00  71.00      1.9719    
 106.00  72.00      1.9331    
 106.00  73.00      1.9107    
 106.00  74.00      1.8606    
 106.00  75.00      1.7335    
 106.00  76.00      1.4907    
 106.00  77.00      1.1192    
 106.00  78.00     0.64753    
 106.00  79.00     0.13061    
 106.00  80.00    -0.35963    
 106.00  81.00    -0.76517    
 106.00  82.00     -1.0583    
 106.00  83.00     -1.2480    
 106.00  84.00     -1.3690    
 106.00  85.00     -1.4597    
 106.00  86.00     -1.5626    
 106.00  87.00     -1.6795    
 106.00  88.00     -1.7767    
 106.00  89.00     -1.8115    
 107.00 -89.00      1.1061    
 107.00 -88.00      1.4166    
 107.00 -87.00      1.7041    
 107.00 -86.00      1.9353    
 107.00 -85.00      2.1018    
 107.00 -84.00      2.2072    
 107.00 -83.00      2.2533    
 107.00 -82.00      2.2583    
 107.00 -81.00      2.2143    
 107.00 -80.00      2.1216    
 107.00 -79.00      1.9827    
 107.00 -78.00      1.8131    
 107.00 -77.00      1.6462    
 107.00 -76.00      1.5293    
 107.00 -75.00      1.5118    
 107.00 -74.00      1.6192    
 107.00 -73.00      1.8467    
 107.00 -72.00      2.1528    
 107.00 -71.00      2.4568    
 107.00 -70.00      2.6660    
 107.00 -69.00      2.6998    
 107.00 -68.00      2.5161    
 107.00 -67.00      2.1249    
 107.00 -66.00      1.5847    
 107.00 -65.00     0.98516    
 107.00 -64.00     0.42020    
 107.00 -63.00    -0.39700E-01
 107.00 -62.00    -0.36561    
 107.00 -61.00    -0.56939    
 107.00 -60.00    -0.69444    
 107.00 -59.00    -0.79354    
 107.00 -58.00    -0.90841    
 107.00 -57.00     -1.0580    
 107.00 -56.00     -1.2377    
 107.00 -55.00     -1.4273    
 107.00 -54.00     -1.6062    
 107.00 -53.00     -1.7633    
 107.00 -52.00     -1.9007    
 107.00 -51.00     -2.0302    
 107.00 -50.00     -2.1624    
 107.00 -49.00     -2.2970    
 107.00 -48.00     -2.4183    
 107.00 -47.00     -2.4975    
 107.00 -46.00     -2.5025    
 107.00 -45.00     -2.4092    
 107.00 -44.00     -2.2103    
 107.00 -43.00     -1.9179    
 107.00 -42.00     -1.5593    
 107.00 -41.00     -1.1680    
 107.00 -40.00    -0.77577    
 107.00 -39.00    -0.40641    
 107.00 -38.00    -0.75831E-01
 107.00 -37.00     0.20508    
 107.00 -36.00     0.42701    
 107.00 -35.00     0.58132    
 107.00 -34.00     0.66281    
 107.00 -33.00     0.67490    
 107.00 -32.00     0.63361    
 107.00 -31.00     0.56731    
 107.00 -30.00     0.51040    
 107.00 -29.00     0.49273    
 107.00 -28.00     0.52879    
 107.00 -27.00     0.61173    
 107.00 -26.00     0.71552    
 107.00 -25.00     0.80534    
 107.00 -24.00     0.85206    
 107.00 -23.00     0.84492    
 107.00 -22.00     0.79653    
 107.00 -21.00     0.73777    
 107.00 -20.00     0.70445    
 107.00 -19.00     0.72162    
 107.00 -18.00     0.79245    
 107.00 -17.00     0.89685    
 107.00 -16.00      1.0005    
 107.00 -15.00      1.0699    
 107.00 -14.00      1.0870    
 107.00 -13.00      1.0550    
 107.00 -12.00     0.99356    
 107.00 -11.00     0.92471    
 107.00 -10.00     0.85686    
 107.00  -9.00     0.77472    
 107.00  -8.00     0.64149    
 107.00  -7.00     0.41385    
 107.00  -6.00     0.63763E-01
 107.00  -5.00    -0.40233    
 107.00  -4.00    -0.93657    
 107.00  -3.00     -1.4595    
 107.00  -2.00     -1.8845    
 107.00  -1.00     -2.1473    
 107.00   0.00     -2.2291    
 107.00   1.00     -2.1627    
 107.00   2.00     -2.0184    
 107.00   3.00     -1.8759    
 107.00   4.00     -1.7922    
 107.00   5.00     -1.7795    
 107.00   6.00     -1.8033    
 107.00   7.00     -1.8004    
 107.00   8.00     -1.7103    
 107.00   9.00     -1.5060    
 107.00  10.00     -1.2117    
 107.00  11.00    -0.89806    
 107.00  12.00    -0.65800    
 107.00  13.00    -0.57188    
 107.00  14.00    -0.67658    
 107.00  15.00    -0.95094    
 107.00  16.00     -1.3233    
 107.00  17.00     -1.6972    
 107.00  18.00     -1.9849    
 107.00  19.00     -2.1336    
 107.00  20.00     -2.1360    
 107.00  21.00     -2.0208    
 107.00  22.00     -1.8307    
 107.00  23.00     -1.5981    
 107.00  24.00     -1.3315    
 107.00  25.00     -1.0175    
 107.00  26.00    -0.63907    
 107.00  27.00    -0.19779    
 107.00  28.00     0.26879    
 107.00  29.00     0.68679    
 107.00  30.00     0.96402    
 107.00  31.00      1.0207    
 107.00  32.00     0.82068    
 107.00  33.00     0.38991    
 107.00  34.00    -0.18658    
 107.00  35.00    -0.78896    
 107.00  36.00     -1.2999    
 107.00  37.00     -1.6412    
 107.00  38.00     -1.7956    
 107.00  39.00     -1.8078    
 107.00  40.00     -1.7630    
 107.00  41.00     -1.7550    
 107.00  42.00     -1.8530    
 107.00  43.00     -2.0816    
 107.00  44.00     -2.4167    
 107.00  45.00     -2.7994    
 107.00  46.00     -3.1568    
 107.00  47.00     -3.4231    
 107.00  48.00     -3.5529    
 107.00  49.00     -3.5223    
 107.00  50.00     -3.3253    
 107.00  51.00     -2.9655    
 107.00  52.00     -2.4520    
 107.00  53.00     -1.8012    
 107.00  54.00     -1.0417    
 107.00  55.00    -0.21893    
 107.00  56.00     0.60631    
 107.00  57.00      1.3661    
 107.00  58.00      1.9998    
 107.00  59.00      2.4687    
 107.00  60.00      2.7644    
 107.00  61.00      2.9072    
 107.00  62.00      2.9377    
 107.00  63.00      2.8991    
 107.00  64.00      2.8253    
 107.00  65.00      2.7328    
 107.00  66.00      2.6236    
 107.00  67.00      2.4949    
 107.00  68.00      2.3482    
 107.00  69.00      2.1973    
 107.00  70.00      2.0624    
 107.00  71.00      1.9624    
 107.00  72.00      1.9000    
 107.00  73.00      1.8565    
 107.00  74.00      1.7908    
 107.00  75.00      1.6552    
 107.00  76.00      1.4113    
 107.00  77.00      1.0453    
 107.00  78.00     0.58344    
 107.00  79.00     0.78000E-01
 107.00  80.00    -0.40063    
 107.00  81.00    -0.79552    
 107.00  82.00     -1.0800    
 107.00  83.00     -1.2619    
 107.00  84.00     -1.3755    
 107.00  85.00     -1.4602    
 107.00  86.00     -1.5577    
 107.00  87.00     -1.6713    
 107.00  88.00     -1.7684    
 107.00  89.00     -1.8061    
 108.00 -89.00      1.1032    
 108.00 -88.00      1.4122    
 108.00 -87.00      1.6996    
 108.00 -86.00      1.9312    
 108.00 -85.00      2.0983    
 108.00 -84.00      2.2036    
 108.00 -83.00      2.2488    
 108.00 -82.00      2.2534    
 108.00 -81.00      2.2070    
 108.00 -80.00      2.1103    
 108.00 -79.00      1.9657    
 108.00 -78.00      1.7886    
 108.00 -77.00      1.6128    
 108.00 -76.00      1.4858    
 108.00 -75.00      1.4580    
 108.00 -74.00      1.5553    
 108.00 -73.00      1.7734    
 108.00 -72.00      2.0713    
 108.00 -71.00      2.3699    
 108.00 -70.00      2.5771    
 108.00 -69.00      2.6140    
 108.00 -68.00      2.4399    
 108.00 -67.00      2.0654    
 108.00 -66.00      1.5484    
 108.00 -65.00     0.97611    
 108.00 -64.00     0.43833    
 108.00 -63.00     0.43111E-03
 108.00 -62.00    -0.31359    
 108.00 -61.00    -0.51920    
 108.00 -60.00    -0.66066    
 108.00 -59.00    -0.78859    
 108.00 -58.00    -0.93928    
 108.00 -57.00     -1.1244    
 108.00 -56.00     -1.3315    
 108.00 -55.00     -1.5341    
 108.00 -54.00     -1.7078    
 108.00 -53.00     -1.8418    
 108.00 -52.00     -1.9421    
 108.00 -51.00     -2.0269    
 108.00 -50.00     -2.1140    
 108.00 -49.00     -2.2100    
 108.00 -48.00     -2.3035    
 108.00 -47.00     -2.3670    
 108.00 -46.00     -2.3674    
 108.00 -45.00     -2.2779    
 108.00 -44.00     -2.0882    
 108.00 -43.00     -1.8087    
 108.00 -42.00     -1.4667    
 108.00 -41.00     -1.0972    
 108.00 -40.00    -0.73351    
 108.00 -39.00    -0.39998    
 108.00 -38.00    -0.11014    
 108.00 -37.00     0.13079    
 108.00 -36.00     0.32162    
 108.00 -35.00     0.46235    
 108.00 -34.00     0.55431    
 108.00 -33.00     0.60283    
 108.00 -32.00     0.61997    
 108.00 -31.00     0.62466    
 108.00 -30.00     0.63866    
 108.00 -29.00     0.67939    
 108.00 -28.00     0.75261    
 108.00 -27.00     0.84886    
 108.00 -26.00     0.94598    
 108.00 -25.00      1.0176    
 108.00 -24.00      1.0445    
 108.00 -23.00      1.0231    
 108.00 -22.00     0.96815    
 108.00 -21.00     0.90697    
 108.00 -20.00     0.86784    
 108.00 -19.00     0.86786    
 108.00 -18.00     0.90570    
 108.00 -17.00     0.96284    
 108.00 -16.00      1.0128    
 108.00 -15.00      1.0342    
 108.00 -14.00      1.0200    
 108.00 -13.00     0.97991    
 108.00 -12.00     0.93172    
 108.00 -11.00     0.88724    
 108.00 -10.00     0.83896    
 108.00  -9.00     0.75541    
 108.00  -8.00     0.58915    
 108.00  -7.00     0.29608    
 108.00  -6.00    -0.14152    
 108.00  -5.00    -0.69844    
 108.00  -4.00     -1.3051    
 108.00  -3.00     -1.8642    
 108.00  -2.00     -2.2808    
 108.00  -1.00     -2.4950    
 108.00   0.00     -2.5033    
 108.00   1.00     -2.3600    
 108.00   2.00     -2.1573    
 108.00   3.00     -1.9897    
 108.00   4.00     -1.9182    
 108.00   5.00     -1.9482    
 108.00   6.00     -2.0306    
 108.00   7.00     -2.0854    
 108.00   8.00     -2.0391    
 108.00   9.00     -1.8603    
 108.00  10.00     -1.5776    
 108.00  11.00     -1.2732    
 108.00  12.00     -1.0533    
 108.00  13.00     -1.0075    
 108.00  14.00     -1.1731    
 108.00  15.00     -1.5189    
 108.00  16.00     -1.9551    
 108.00  17.00     -2.3635    
 108.00  18.00     -2.6381    
 108.00  19.00     -2.7174    
 108.00  20.00     -2.5981    
 108.00  21.00     -2.3260    
 108.00  22.00     -1.9691    
 108.00  23.00     -1.5868    
 108.00  24.00     -1.2086    
 108.00  25.00    -0.83070    
 108.00  26.00    -0.43136    
 108.00  27.00     0.43150E-02
 108.00  28.00     0.46184    
 108.00  29.00     0.88924    
 108.00  30.00      1.2080    
 108.00  31.00      1.3393    
 108.00  32.00      1.2350    
 108.00  33.00     0.89951    
 108.00  34.00     0.39393    
 108.00  35.00    -0.18113    
 108.00  36.00    -0.71678    
 108.00  37.00     -1.1298    
 108.00  38.00     -1.3863    
 108.00  39.00     -1.5073    
 108.00  40.00     -1.5546    
 108.00  41.00     -1.6047    
 108.00  42.00     -1.7198    
 108.00  43.00     -1.9283    
 108.00  44.00     -2.2189    
 108.00  45.00     -2.5489    
 108.00  46.00     -2.8603    
 108.00  47.00     -3.0978    
 108.00  48.00     -3.2193    
 108.00  49.00     -3.1991    
 108.00  50.00     -3.0257    
 108.00  51.00     -2.6970    
 108.00  52.00     -2.2182    
 108.00  53.00     -1.6044    
 108.00  54.00    -0.88490    
 108.00  55.00    -0.10586    
 108.00  56.00     0.67211    
 108.00  57.00      1.3838    
 108.00  58.00      1.9733    
 108.00  59.00      2.4074    
 108.00  60.00      2.6824    
 108.00  61.00      2.8213    
 108.00  62.00      2.8635    
 108.00  63.00      2.8490    
 108.00  64.00      2.8054    
 108.00  65.00      2.7426    
 108.00  66.00      2.6570    
 108.00  67.00      2.5415    
 108.00  68.00      2.3960    
 108.00  69.00      2.2349    
 108.00  70.00      2.0806    
 108.00  71.00      1.9558    
 108.00  72.00      1.8672    
 108.00  73.00      1.8003    
 108.00  74.00      1.7172    
 108.00  75.00      1.5721    
 108.00  76.00      1.3270    
 108.00  77.00     0.96704    
 108.00  78.00     0.51616    
 108.00  79.00     0.23616E-01
 108.00  80.00    -0.44204    
 108.00  81.00    -0.82531    
 108.00  82.00     -1.1005    
 108.00  83.00     -1.2745    
 108.00  84.00     -1.3809    
 108.00  85.00     -1.4601    
 108.00  86.00     -1.5524    
 108.00  87.00     -1.6630    
 108.00  88.00     -1.7600    
 108.00  89.00     -1.8007    
 109.00 -89.00      1.1002    
 109.00 -88.00      1.4076    
 109.00 -87.00      1.6949    
 109.00 -86.00      1.9269    
 109.00 -85.00      2.0945    
 109.00 -84.00      2.1995    
 109.00 -83.00      2.2441    
 109.00 -82.00      2.2479    
 109.00 -81.00      2.1991    
 109.00 -80.00      2.0982    
 109.00 -79.00      1.9475    
 109.00 -78.00      1.7622    
 109.00 -77.00      1.5762    
 109.00 -76.00      1.4376    
 109.00 -75.00      1.3975    
 109.00 -74.00      1.4823    
 109.00 -73.00      1.6892    
 109.00 -72.00      1.9777    
 109.00 -71.00      2.2704    
 109.00 -70.00      2.4763    
 109.00 -69.00      2.5183    
 109.00 -68.00      2.3569    
 109.00 -67.00      2.0030    
 109.00 -66.00      1.5135    
 109.00 -65.00     0.97285    
 109.00 -64.00     0.46653    
 109.00 -63.00     0.54336E-01
 109.00 -62.00    -0.24475    
 109.00 -61.00    -0.45028    
 109.00 -60.00    -0.60761    
 109.00 -59.00    -0.76538    
 109.00 -58.00    -0.95452    
 109.00 -57.00     -1.1794    
 109.00 -56.00     -1.4190    
 109.00 -55.00     -1.6400    
 109.00 -54.00     -1.8134    
 109.00 -53.00     -1.9277    
 109.00 -52.00     -1.9916    
 109.00 -51.00     -2.0289    
 109.00 -50.00     -2.0647    
 109.00 -49.00     -2.1122    
 109.00 -48.00     -2.1655    
 109.00 -47.00     -2.2000    
 109.00 -46.00     -2.1834    
 109.00 -45.00     -2.0886    
 109.00 -44.00     -1.9039    
 109.00 -43.00     -1.6393    
 109.00 -42.00     -1.3217    
 109.00 -41.00    -0.98592    
 109.00 -40.00    -0.66404    
 109.00 -39.00    -0.37717    
 109.00 -38.00    -0.13332    
 109.00 -37.00     0.69907E-01
 109.00 -36.00     0.23942    
 109.00 -35.00     0.38169    
 109.00 -34.00     0.50067    
 109.00 -33.00     0.59902    
 109.00 -32.00     0.68095    
 109.00 -31.00     0.75396    
 109.00 -30.00     0.82781    
 109.00 -29.00     0.91063    
 109.00 -28.00      1.0043    
 109.00 -27.00      1.1015    
 109.00 -26.00      1.1877    
 109.00 -25.00      1.2461    
 109.00 -24.00      1.2656    
 109.00 -23.00      1.2461    
 109.00 -22.00      1.2000    
 109.00 -21.00      1.1466    
 109.00 -20.00      1.1045    
 109.00 -19.00      1.0825    
 109.00 -18.00      1.0765    
 109.00 -17.00      1.0721    
 109.00 -16.00      1.0532    
 109.00 -15.00      1.0116    
 109.00 -14.00     0.95248    
 109.00 -13.00     0.89162    
 109.00 -12.00     0.84522    
 109.00 -11.00     0.81594    
 109.00 -10.00     0.78274    
 109.00  -9.00     0.70092    
 109.00  -8.00     0.51489    
 109.00  -7.00     0.18048    
 109.00  -6.00    -0.31171    
 109.00  -5.00    -0.92230    
 109.00  -4.00     -1.5664    
 109.00  -3.00     -2.1352    
 109.00  -2.00     -2.5302    
 109.00  -1.00     -2.6967    
 109.00   0.00     -2.6443    
 109.00   1.00     -2.4442    
 109.00   2.00     -2.2044    
 109.00   3.00     -2.0300    
 109.00   4.00     -1.9848    
 109.00   5.00     -2.0693    
 109.00   6.00     -2.2240    
 109.00   7.00     -2.3564    
 109.00   8.00     -2.3827    
 109.00   9.00     -2.2652    
 109.00  10.00     -2.0318    
 109.00  11.00     -1.7678    
 109.00  12.00     -1.5836    
 109.00  13.00     -1.5716    
 109.00  14.00     -1.7676    
 109.00  15.00     -2.1347    
 109.00  16.00     -2.5733    
 109.00  17.00     -2.9558    
 109.00  18.00     -3.1695    
 109.00  19.00     -3.1531    
 109.00  20.00     -2.9114    
 109.00  21.00     -2.5058    
 109.00  22.00     -2.0238    
 109.00  23.00     -1.5438    
 109.00  24.00     -1.1082    
 109.00  25.00    -0.71613    
 109.00  26.00    -0.33747    
 109.00  27.00     0.60335E-01
 109.00  28.00     0.48499    
 109.00  29.00     0.90484    
 109.00  30.00      1.2537    
 109.00  31.00      1.4531    
 109.00  32.00      1.4432    
 109.00  33.00      1.2075    
 109.00  34.00     0.78373    
 109.00  35.00     0.25307    
 109.00  36.00    -0.28490    
 109.00  37.00    -0.74364    
 109.00  38.00     -1.0747    
 109.00  39.00     -1.2775    
 109.00  40.00     -1.3920    
 109.00  41.00     -1.4786    
 109.00  42.00     -1.5934    
 109.00  43.00     -1.7688    
 109.00  44.00     -2.0063    
 109.00  45.00     -2.2790    
 109.00  46.00     -2.5437    
 109.00  47.00     -2.7543    
 109.00  48.00     -2.8715    
 109.00  49.00     -2.8669    
 109.00  50.00     -2.7225    
 109.00  51.00     -2.4300    
 109.00  52.00     -1.9902    
 109.00  53.00     -1.4170    
 109.00  54.00    -0.74026    
 109.00  55.00    -0.73339E-02
 109.00  56.00     0.72154    
 109.00  57.00      1.3839    
 109.00  58.00      1.9290    
 109.00  59.00      2.3291    
 109.00  60.00      2.5856    
 109.00  61.00      2.7239    
 109.00  62.00      2.7820    
 109.00  63.00      2.7959    
 109.00  64.00      2.7867    
 109.00  65.00      2.7570    
 109.00  66.00      2.6972    
 109.00  67.00      2.5961    
 109.00  68.00      2.4517    
 109.00  69.00      2.2794    
 109.00  70.00      2.1039    
 109.00  71.00      1.9521    
 109.00  72.00      1.8352    
 109.00  73.00      1.7428    
 109.00  74.00      1.6406    
 109.00  75.00      1.4851    
 109.00  76.00      1.2385    
 109.00  77.00     0.88503    
 109.00  78.00     0.44613    
 109.00  79.00    -0.32263E-01
 109.00  80.00    -0.48374    
 109.00  81.00    -0.85448    
 109.00  82.00     -1.1200    
 109.00  83.00     -1.2859    
 109.00  84.00     -1.3851    
 109.00  85.00     -1.4594    
 109.00  86.00     -1.5469    
 109.00  87.00     -1.6545    
 109.00  88.00     -1.7516    
 109.00  89.00     -1.7954    
 110.00 -89.00      1.0970    
 110.00 -88.00      1.4028    
 110.00 -87.00      1.6898    
 110.00 -86.00      1.9222    
 110.00 -85.00      2.0903    
 110.00 -84.00      2.1950    
 110.00 -83.00      2.2393    
 110.00 -82.00      2.2421    
 110.00 -81.00      2.1908    
 110.00 -80.00      2.0855    
 110.00 -79.00      1.9284    
 110.00 -78.00      1.7342    
 110.00 -77.00      1.5370    
 110.00 -76.00      1.3852    
 110.00 -75.00      1.3308    
 110.00 -74.00      1.4013    
 110.00 -73.00      1.5953    
 110.00 -72.00      1.8733    
 110.00 -71.00      2.1599    
 110.00 -70.00      2.3655    
 110.00 -69.00      2.4143    
 110.00 -68.00      2.2681    
 110.00 -67.00      1.9376    
 110.00 -66.00      1.4785    
 110.00 -65.00     0.97229    
 110.00 -64.00     0.49994    
 110.00 -63.00     0.11564    
 110.00 -62.00    -0.16649    
 110.00 -61.00    -0.37036    
 110.00 -60.00    -0.54248    
 110.00 -59.00    -0.72975    
 110.00 -58.00    -0.95802    
 110.00 -57.00     -1.2245    
 110.00 -56.00     -1.4996    
 110.00 -55.00     -1.7429    
 110.00 -54.00     -1.9202    
 110.00 -53.00     -2.0180    
 110.00 -52.00     -2.0475    
 110.00 -51.00     -2.0368    
 110.00 -50.00     -2.0177    
 110.00 -49.00     -2.0100    
 110.00 -48.00     -2.0137    
 110.00 -47.00     -2.0085    
 110.00 -46.00     -1.9646    
 110.00 -45.00     -1.8560    
 110.00 -44.00     -1.6719    
 110.00 -43.00     -1.4221    
 110.00 -42.00     -1.1327    
 110.00 -41.00    -0.83669    
 110.00 -40.00    -0.56218    
 110.00 -39.00    -0.32404    
 110.00 -38.00    -0.12219    
 110.00 -37.00     0.54324E-01
 110.00 -36.00     0.21944    
 110.00 -35.00     0.38291    
 110.00 -34.00     0.54669    
 110.00 -33.00     0.70603    
 110.00 -32.00     0.85374    
 110.00 -31.00     0.98486    
 110.00 -30.00      1.0991    
 110.00 -29.00      1.1997    
 110.00 -28.00      1.2907    
 110.00 -27.00      1.3726    
 110.00 -26.00      1.4419    
 110.00 -25.00      1.4920    
 110.00 -24.00      1.5175    
 110.00 -23.00      1.5172    
 110.00 -22.00      1.4952    
 110.00 -21.00      1.4592    
 110.00 -20.00      1.4154    
 110.00 -19.00      1.3650    
 110.00 -18.00      1.3032    
 110.00 -17.00      1.2230    
 110.00 -16.00      1.1211    
 110.00 -15.00      1.0041    
 110.00 -14.00     0.88883    
 110.00 -13.00     0.79670    
 110.00 -12.00     0.74197    
 110.00 -11.00     0.71924    
 110.00 -10.00     0.69663    
 110.00  -9.00     0.61987    
 110.00  -8.00     0.42847    
 110.00  -7.00     0.79406E-01
 110.00  -6.00    -0.43028    
 110.00  -5.00     -1.0522    
 110.00  -4.00     -1.6934    
 110.00  -3.00     -2.2412    
 110.00  -2.00     -2.5986    
 110.00  -1.00     -2.7180    
 110.00   0.00     -2.6194    
 110.00   1.00     -2.3853    
 110.00   2.00     -2.1328    
 110.00   3.00     -1.9720    
 110.00   4.00     -1.9675    
 110.00   5.00     -2.1163    
 110.00   6.00     -2.3525    
 110.00   7.00     -2.5764    
 110.00   8.00     -2.6965    
 110.00   9.00     -2.6686    
 110.00  10.00     -2.5145    
 110.00  11.00     -2.3147    
 110.00  12.00     -2.1754    
 110.00  13.00     -2.1852    
 110.00  14.00     -2.3774    
 110.00  15.00     -2.7129    
 110.00  16.00     -3.0925    
 110.00  17.00     -3.3906    
 110.00  18.00     -3.4999    
 110.00  19.00     -3.3674    
 110.00  20.00     -3.0096    
 110.00  21.00     -2.5009    
 110.00  22.00     -1.9420    
 110.00  23.00     -1.4216    
 110.00  24.00    -0.98653    
 110.00  25.00    -0.63307    
 110.00  26.00    -0.31981    
 110.00  27.00     0.34435E-02
 110.00  28.00     0.36483    
 110.00  29.00     0.75092    
 110.00  30.00      1.1066    
 110.00  31.00      1.3541    
 110.00  32.00      1.4232    
 110.00  33.00      1.2789    
 110.00  34.00     0.93706    
 110.00  35.00     0.46055    
 110.00  36.00    -0.61079E-01
 110.00  37.00    -0.53997    
 110.00  38.00    -0.91581    
 110.00  39.00     -1.1696    
 110.00  40.00     -1.3223    
 110.00  41.00     -1.4202    
 110.00  42.00     -1.5143    
 110.00  43.00     -1.6419    
 110.00  44.00     -1.8164    
 110.00  45.00     -2.0266    
 110.00  46.00     -2.2427    
 110.00  47.00     -2.4272    
 110.00  48.00     -2.5423    
 110.00  49.00     -2.5560    
 110.00  50.00     -2.4431    
 110.00  51.00     -2.1885    
 110.00  52.00     -1.7888    
 110.00  53.00     -1.2562    
 110.00  54.00    -0.62174    
 110.00  55.00     0.66231E-01
 110.00  56.00     0.74763    
 110.00  57.00      1.3628    
 110.00  58.00      1.8659    
 110.00  59.00      2.2351    
 110.00  60.00      2.4765    
 110.00  61.00      2.6180    
 110.00  62.00      2.6960    
 110.00  63.00      2.7419    
 110.00  64.00      2.7701    
 110.00  65.00      2.7760    
 110.00  66.00      2.7435    
 110.00  67.00      2.6573    
 110.00  68.00      2.5140    
 110.00  69.00      2.3296    
 110.00  70.00      2.1318    
 110.00  71.00      1.9513    
 110.00  72.00      1.8044    
 110.00  73.00      1.6847    
 110.00  74.00      1.5620    
 110.00  75.00      1.3951    
 110.00  76.00      1.1466    
 110.00  77.00     0.79992    
 110.00  78.00     0.37382    
 110.00  79.00    -0.89329E-01
 110.00  80.00    -0.52555    
 110.00  81.00    -0.88298    
 110.00  82.00     -1.1384    
 110.00  83.00     -1.2960    
 110.00  84.00     -1.3883    
 110.00  85.00     -1.4581    
 110.00  86.00     -1.5412    
 110.00  87.00     -1.6458    
 110.00  88.00     -1.7432    
 110.00  89.00     -1.7900    
 111.00 -89.00      1.0938    
 111.00 -88.00      1.3978    
 111.00 -87.00      1.6845    
 111.00 -86.00      1.9172    
 111.00 -85.00      2.0858    
 111.00 -84.00      2.1902    
