 274.00  22.00     0.72134E-01
 274.00  23.00     0.76077E-01
 274.00  24.00     0.80017E-01
 274.00  25.00     0.83952E-01
 274.00  26.00     0.87883E-01
 274.00  27.00     0.91807E-01
 274.00  28.00     0.95724E-01
 274.00  29.00     0.99631E-01
 274.00  30.00     0.10353    
 274.00  31.00     0.10741    
 274.00  32.00     0.11129    
 274.00  33.00     0.11515    
 274.00  34.00     0.11899    
 274.00  35.00     0.12282    
 274.00  36.00     0.12664    
 274.00  37.00     0.13043    
 274.00  38.00     0.13420    
 274.00  39.00     0.13796    
 274.00  40.00     0.14169    
 274.00  41.00     0.14540    
 274.00  42.00     0.14908    
 274.00  43.00     0.15274    
 274.00  44.00     0.15638    
 274.00  45.00     0.15998    
 274.00  46.00     0.16356    
 274.00  47.00     0.16711    
 274.00  48.00     0.17063    
 274.00  49.00     0.17411    
 274.00  50.00     0.17757    
 274.00  51.00     0.18099    
 274.00  52.00     0.18437    
 274.00  53.00     0.18772    
 274.00  54.00     0.19103    
 274.00  55.00     0.19430    
 274.00  56.00     0.19754    
 274.00  57.00     0.20073    
 274.00  58.00     0.20389    
 274.00  59.00     0.20700    
 274.00  60.00     0.21007    
 274.00  61.00     0.21309    
 274.00  62.00     0.21608    
 274.00  63.00     0.21901    
 274.00  64.00     0.22190    
 274.00  65.00     0.22474    
 274.00  66.00     0.22754    
 274.00  67.00     0.23028    
 274.00  68.00     0.23297    
 274.00  69.00     0.23562    
 274.00  70.00     0.23821    
 274.00  71.00     0.24075    
 274.00  72.00     0.24324    
 274.00  73.00     0.24567    
 274.00  74.00     0.24805    
 274.00  75.00     0.25037    
 274.00  76.00     0.25264    
 274.00  77.00     0.25485    
 274.00  78.00     0.25701    
 274.00  79.00     0.25910    
 274.00  80.00     0.26114    
 274.00  81.00     0.26311    
 274.00  82.00     0.26503    
 274.00  83.00     0.26689    
 274.00  84.00     0.26868    
 274.00  85.00     0.27042    
 274.00  86.00     0.27209    
 274.00  87.00     0.27370    
 274.00  88.00     0.27525    
 274.00  89.00     0.27673    
 275.00 -89.00    -0.14643    
 275.00 -88.00    -0.14771    
 275.00 -87.00    -0.14893    
 275.00 -86.00    -0.15008    
 275.00 -85.00    -0.15117    
 275.00 -84.00    -0.15219    
 275.00 -83.00    -0.15314    
 275.00 -82.00    -0.15402    
 275.00 -81.00    -0.15484    
 275.00 -80.00    -0.15559    
 275.00 -79.00    -0.15628    
 275.00 -78.00    -0.15689    
 275.00 -77.00    -0.15744    
 275.00 -76.00    -0.15792    
 275.00 -75.00    -0.15833    
 275.00 -74.00    -0.15867    
 275.00 -73.00    -0.15895    
 275.00 -72.00    -0.15915    
 275.00 -71.00    -0.15929    
 275.00 -70.00    -0.15936    
 275.00 -69.00    -0.15935    
 275.00 -68.00    -0.15928    
 275.00 -67.00    -0.15914    
 275.00 -66.00    -0.15894    
 275.00 -65.00    -0.15866    
 275.00 -64.00    -0.15832    
 275.00 -63.00    -0.15790    
 275.00 -62.00    -0.15742    
 275.00 -61.00    -0.15687    
 275.00 -60.00    -0.15625    
 275.00 -59.00    -0.15557    
 275.00 -58.00    -0.15481    
 275.00 -57.00    -0.15399    
 275.00 -56.00    -0.15310    
 275.00 -55.00    -0.15215    
 275.00 -54.00    -0.15113    
 275.00 -53.00    -0.15004    
 275.00 -52.00    -0.14889    
 275.00 -51.00    -0.14767    
 275.00 -50.00    -0.14638    
 275.00 -49.00    -0.14503    
 275.00 -48.00    -0.14362    
 275.00 -47.00    -0.14214    
 275.00 -46.00    -0.14060    
 275.00 -45.00    -0.13899    
 275.00 -44.00    -0.13733    
 275.00 -43.00    -0.13560    
 275.00 -42.00    -0.13381    
 275.00 -41.00    -0.13195    
 275.00 -40.00    -0.13004    
 275.00 -39.00    -0.12807    
 275.00 -38.00    -0.12604    
 275.00 -37.00    -0.12395    
 275.00 -36.00    -0.12180    
 275.00 -35.00    -0.11959    
 275.00 -34.00    -0.11733    
 275.00 -33.00    -0.11501    
 275.00 -32.00    -0.11264    
 275.00 -31.00    -0.11021    
 275.00 -30.00    -0.10773    
 275.00 -29.00    -0.10519    
 275.00 -28.00    -0.10261    
 275.00 -27.00    -0.99967E-01
 275.00 -26.00    -0.97277E-01
 275.00 -25.00    -0.94537E-01
 275.00 -24.00    -0.91749E-01
 275.00 -23.00    -0.88912E-01
 275.00 -22.00    -0.86028E-01
 275.00 -21.00    -0.83097E-01
 275.00 -20.00    -0.80120E-01
 275.00 -19.00    -0.77099E-01
 275.00 -18.00    -0.74035E-01
 275.00 -17.00    -0.70927E-01
 275.00 -16.00    -0.67778E-01
 275.00 -15.00    -0.64587E-01
 275.00 -14.00    -0.61357E-01
 275.00 -13.00    -0.58088E-01
 275.00 -12.00    -0.54781E-01
 275.00 -11.00    -0.51436E-01
 275.00 -10.00    -0.48056E-01
 275.00  -9.00    -0.44641E-01
 275.00  -8.00    -0.41192E-01
 275.00  -7.00    -0.37711E-01
 275.00  -6.00    -0.34197E-01
 275.00  -5.00    -0.30653E-01
 275.00  -4.00    -0.27079E-01
 275.00  -3.00    -0.23477E-01
 275.00  -2.00    -0.19848E-01
 275.00  -1.00    -0.16192E-01
 275.00   0.00    -0.12510E-01
 275.00   1.00    -0.88052E-02
 275.00   2.00    -0.50770E-02
 275.00   3.00    -0.13270E-02
 275.00   4.00     0.24437E-02
 275.00   5.00     0.62339E-02
 275.00   6.00     0.10042E-01
 275.00   7.00     0.13868E-01
 275.00   8.00     0.17710E-01
 275.00   9.00     0.21567E-01
 275.00  10.00     0.25437E-01
 275.00  11.00     0.29320E-01
 275.00  12.00     0.33214E-01
 275.00  13.00     0.37119E-01
 275.00  14.00     0.41032E-01
 275.00  15.00     0.44953E-01
 275.00  16.00     0.48881E-01
 275.00  17.00     0.52814E-01
 275.00  18.00     0.56751E-01
 275.00  19.00     0.60691E-01
 275.00  20.00     0.64633E-01
 275.00  21.00     0.68576E-01
 275.00  22.00     0.72518E-01
 275.00  23.00     0.76458E-01
 275.00  24.00     0.80395E-01
 275.00  25.00     0.84328E-01
 275.00  26.00     0.88256E-01
 275.00  27.00     0.92177E-01
 275.00  28.00     0.96090E-01
 275.00  29.00     0.99994E-01
 275.00  30.00     0.10389    
 275.00  31.00     0.10777    
 275.00  32.00     0.11164    
 275.00  33.00     0.11550    
 275.00  34.00     0.11934    
 275.00  35.00     0.12316    
 275.00  36.00     0.12697    
 275.00  37.00     0.13076    
 275.00  38.00     0.13453    
 275.00  39.00     0.13828    
 275.00  40.00     0.14201    
 275.00  41.00     0.14571    
 275.00  42.00     0.14939    
 275.00  43.00     0.15305    
 275.00  44.00     0.15667    
 275.00  45.00     0.16028    
 275.00  46.00     0.16385    
 275.00  47.00     0.16739    
 275.00  48.00     0.17090    
 275.00  49.00     0.17438    
 275.00  50.00     0.17783    
 275.00  51.00     0.18125    
 275.00  52.00     0.18463    
 275.00  53.00     0.18797    
 275.00  54.00     0.19127    
 275.00  55.00     0.19454    
 275.00  56.00     0.19777    
 275.00  57.00     0.20096    
 275.00  58.00     0.20411    
 275.00  59.00     0.20721    
 275.00  60.00     0.21028    
 275.00  61.00     0.21330    
 275.00  62.00     0.21627    
 275.00  63.00     0.21920    
 275.00  64.00     0.22208    
 275.00  65.00     0.22492    
 275.00  66.00     0.22770    
 275.00  67.00     0.23044    
 275.00  68.00     0.23313    
 275.00  69.00     0.23577    
 275.00  70.00     0.23835    
 275.00  71.00     0.24089    
 275.00  72.00     0.24337    
 275.00  73.00     0.24579    
 275.00  74.00     0.24816    
 275.00  75.00     0.25048    
 275.00  76.00     0.25274    
 275.00  77.00     0.25495    
 275.00  78.00     0.25709    
 275.00  79.00     0.25918    
 275.00  80.00     0.26121    
 275.00  81.00     0.26318    
 275.00  82.00     0.26509    
 275.00  83.00     0.26694    
 275.00  84.00     0.26873    
 275.00  85.00     0.27046    
 275.00  86.00     0.27212    
 275.00  87.00     0.27372    
 275.00  88.00     0.27526    
 275.00  89.00     0.27674    
 276.00 -89.00    -0.14642    
 276.00 -88.00    -0.14770    
 276.00 -87.00    -0.14891    
 276.00 -86.00    -0.15005    
 276.00 -85.00    -0.15113    
 276.00 -84.00    -0.15214    
 276.00 -83.00    -0.15308    
 276.00 -82.00    -0.15396    
 276.00 -81.00    -0.15477    
 276.00 -80.00    -0.15552    
 276.00 -79.00    -0.15619    
 276.00 -78.00    -0.15680    
 276.00 -77.00    -0.15734    
 276.00 -76.00    -0.15781    
 276.00 -75.00    -0.15822    
 276.00 -74.00    -0.15855    
 276.00 -73.00    -0.15882    
 276.00 -72.00    -0.15902    
 276.00 -71.00    -0.15914    
 276.00 -70.00    -0.15921    
 276.00 -69.00    -0.15920    
 276.00 -68.00    -0.15912    
 276.00 -67.00    -0.15897    
 276.00 -66.00    -0.15876    
 276.00 -65.00    -0.15848    
 276.00 -64.00    -0.15812    
 276.00 -63.00    -0.15770    
 276.00 -62.00    -0.15722    
 276.00 -61.00    -0.15666    
 276.00 -60.00    -0.15603    
 276.00 -59.00    -0.15534    
 276.00 -58.00    -0.15458    
 276.00 -57.00    -0.15375    
 276.00 -56.00    -0.15286    
 276.00 -55.00    -0.15190    
 276.00 -54.00    -0.15087    
 276.00 -53.00    -0.14978    
 276.00 -52.00    -0.14862    
 276.00 -51.00    -0.14739    
 276.00 -50.00    -0.14610    
 276.00 -49.00    -0.14474    
 276.00 -48.00    -0.14333    
 276.00 -47.00    -0.14184    
 276.00 -46.00    -0.14029    
 276.00 -45.00    -0.13868    
 276.00 -44.00    -0.13701    
 276.00 -43.00    -0.13528    
 276.00 -42.00    -0.13348    
 276.00 -41.00    -0.13162    
 276.00 -40.00    -0.12971    
 276.00 -39.00    -0.12773    
 276.00 -38.00    -0.12569    
 276.00 -37.00    -0.12360    
 276.00 -36.00    -0.12144    
 276.00 -35.00    -0.11923    
 276.00 -34.00    -0.11697    
 276.00 -33.00    -0.11464    
 276.00 -32.00    -0.11227    
 276.00 -31.00    -0.10983    
 276.00 -30.00    -0.10735    
 276.00 -29.00    -0.10481    
 276.00 -28.00    -0.10222    
 276.00 -27.00    -0.99576E-01
 276.00 -26.00    -0.96883E-01
 276.00 -25.00    -0.94140E-01
 276.00 -24.00    -0.91348E-01
 276.00 -23.00    -0.88508E-01
 276.00 -22.00    -0.85621E-01
 276.00 -21.00    -0.82687E-01
 276.00 -20.00    -0.79708E-01
 276.00 -19.00    -0.76685E-01
 276.00 -18.00    -0.73618E-01
 276.00 -17.00    -0.70508E-01
 276.00 -16.00    -0.67356E-01
 276.00 -15.00    -0.64164E-01
 276.00 -14.00    -0.60931E-01
 276.00 -13.00    -0.57660E-01
 276.00 -12.00    -0.54352E-01
 276.00 -11.00    -0.51006E-01
 276.00 -10.00    -0.47624E-01
 276.00  -9.00    -0.44208E-01
 276.00  -8.00    -0.40758E-01
 276.00  -7.00    -0.37275E-01
 276.00  -6.00    -0.33761E-01
 276.00  -5.00    -0.30216E-01
 276.00  -4.00    -0.26642E-01
 276.00  -3.00    -0.23039E-01
 276.00  -2.00    -0.19409E-01
 276.00  -1.00    -0.15753E-01
 276.00   0.00    -0.12072E-01
 276.00   1.00    -0.83666E-02
 276.00   2.00    -0.46386E-02
 276.00   3.00    -0.88895E-03
 276.00   4.00     0.28813E-02
 276.00   5.00     0.66709E-02
 276.00   6.00     0.10479E-01
 276.00   7.00     0.14304E-01
 276.00   8.00     0.18144E-01
 276.00   9.00     0.22000E-01
 276.00  10.00     0.25869E-01
 276.00  11.00     0.29751E-01
 276.00  12.00     0.33643E-01
 276.00  13.00     0.37546E-01
 276.00  14.00     0.41458E-01
 276.00  15.00     0.45377E-01
 276.00  16.00     0.49303E-01
 276.00  17.00     0.53233E-01
 276.00  18.00     0.57168E-01
 276.00  19.00     0.61106E-01
 276.00  20.00     0.65046E-01
 276.00  21.00     0.68986E-01
 276.00  22.00     0.72925E-01
 276.00  23.00     0.76862E-01
 276.00  24.00     0.80796E-01
 276.00  25.00     0.84726E-01
 276.00  26.00     0.88650E-01
 276.00  27.00     0.92567E-01
 276.00  28.00     0.96477E-01
 276.00  29.00     0.10038    
 276.00  30.00     0.10427    
 276.00  31.00     0.10815    
 276.00  32.00     0.11201    
 276.00  33.00     0.11586    
 276.00  34.00     0.11970    
 276.00  35.00     0.12352    
 276.00  36.00     0.12733    
 276.00  37.00     0.13111    
 276.00  38.00     0.13488    
 276.00  39.00     0.13862    
 276.00  40.00     0.14234    
 276.00  41.00     0.14604    
 276.00  42.00     0.14972    
 276.00  43.00     0.15337    
 276.00  44.00     0.15699    
 276.00  45.00     0.16059    
 276.00  46.00     0.16415    
 276.00  47.00     0.16769    
 276.00  48.00     0.17120    
 276.00  49.00     0.17467    
 276.00  50.00     0.17811    
 276.00  51.00     0.18152    
 276.00  52.00     0.18490    
 276.00  53.00     0.18823    
 276.00  54.00     0.19153    
 276.00  55.00     0.19479    
 276.00  56.00     0.19802    
 276.00  57.00     0.20120    
 276.00  58.00     0.20434    
 276.00  59.00     0.20744    
 276.00  60.00     0.21050    
 276.00  61.00     0.21351    
 276.00  62.00     0.21648    
 276.00  63.00     0.21940    
 276.00  64.00     0.22227    
 276.00  65.00     0.22510    
 276.00  66.00     0.22788    
 276.00  67.00     0.23061    
 276.00  68.00     0.23329    
 276.00  69.00     0.23592    
 276.00  70.00     0.23850    
 276.00  71.00     0.24103    
 276.00  72.00     0.24350    
 276.00  73.00     0.24592    
 276.00  74.00     0.24829    
 276.00  75.00     0.25059    
 276.00  76.00     0.25285    
 276.00  77.00     0.25504    
 276.00  78.00     0.25718    
 276.00  79.00     0.25926    
 276.00  80.00     0.26129    
 276.00  81.00     0.26325    
 276.00  82.00     0.26515    
 276.00  83.00     0.26699    
 276.00  84.00     0.26877    
 276.00  85.00     0.27049    
 276.00  86.00     0.27215    
 276.00  87.00     0.27375    
 276.00  88.00     0.27528    
 276.00  89.00     0.27675    
 277.00 -89.00    -0.14641    
 277.00 -88.00    -0.14768    
 277.00 -87.00    -0.14888    
 277.00 -86.00    -0.15002    
 277.00 -85.00    -0.15109    
 277.00 -84.00    -0.15209    
 277.00 -83.00    -0.15303    
 277.00 -82.00    -0.15390    
 277.00 -81.00    -0.15470    
 277.00 -80.00    -0.15544    
 277.00 -79.00    -0.15610    
 277.00 -78.00    -0.15670    
 277.00 -77.00    -0.15724    
 277.00 -76.00    -0.15770    
 277.00 -75.00    -0.15810    
 277.00 -74.00    -0.15842    
 277.00 -73.00    -0.15868    
 277.00 -72.00    -0.15887    
 277.00 -71.00    -0.15899    
 277.00 -70.00    -0.15905    
 277.00 -69.00    -0.15903    
 277.00 -68.00    -0.15895    
 277.00 -67.00    -0.15879    
 277.00 -66.00    -0.15857    
 277.00 -65.00    -0.15828    
 277.00 -64.00    -0.15792    
 277.00 -63.00    -0.15749    
 277.00 -62.00    -0.15700    
 277.00 -61.00    -0.15643    
 277.00 -60.00    -0.15580    
 277.00 -59.00    -0.15510    
 277.00 -58.00    -0.15434    
 277.00 -57.00    -0.15350    
 277.00 -56.00    -0.15260    
 277.00 -55.00    -0.15163    
 277.00 -54.00    -0.15060    
 277.00 -53.00    -0.14950    
 277.00 -52.00    -0.14833    
 277.00 -51.00    -0.14710    
 277.00 -50.00    -0.14580    
 277.00 -49.00    -0.14444    
 277.00 -48.00    -0.14302    
 277.00 -47.00    -0.14153    
 277.00 -46.00    -0.13997    
 277.00 -45.00    -0.13836    
 277.00 -44.00    -0.13668    
 277.00 -43.00    -0.13494    
 277.00 -42.00    -0.13314    
 277.00 -41.00    -0.13127    
 277.00 -40.00    -0.12935    
 277.00 -39.00    -0.12737    
 277.00 -38.00    -0.12533    
 277.00 -37.00    -0.12323    
 277.00 -36.00    -0.12107    
 277.00 -35.00    -0.11886    
 277.00 -34.00    -0.11658    
 277.00 -33.00    -0.11426    
 277.00 -32.00    -0.11187    
 277.00 -31.00    -0.10944    
 277.00 -30.00    -0.10695    
 277.00 -29.00    -0.10441    
 277.00 -28.00    -0.10181    
 277.00 -27.00    -0.99164E-01
 277.00 -26.00    -0.96467E-01
 277.00 -25.00    -0.93721E-01
 277.00 -24.00    -0.90925E-01
 277.00 -23.00    -0.88082E-01
 277.00 -22.00    -0.85192E-01
 277.00 -21.00    -0.82255E-01
 277.00 -20.00    -0.79274E-01
 277.00 -19.00    -0.76247E-01
 277.00 -18.00    -0.73178E-01
 277.00 -17.00    -0.70065E-01
 277.00 -16.00    -0.66911E-01
 277.00 -15.00    -0.63717E-01
 277.00 -14.00    -0.60483E-01
 277.00 -13.00    -0.57210E-01
 277.00 -12.00    -0.53899E-01
 277.00 -11.00    -0.50552E-01
 277.00 -10.00    -0.47169E-01
 277.00  -9.00    -0.43751E-01
 277.00  -8.00    -0.40300E-01
 277.00  -7.00    -0.36816E-01
 277.00  -6.00    -0.33301E-01
 277.00  -5.00    -0.29755E-01
 277.00  -4.00    -0.26180E-01
 277.00  -3.00    -0.22577E-01
 277.00  -2.00    -0.18947E-01
 277.00  -1.00    -0.15291E-01
 277.00   0.00    -0.11609E-01
 277.00   1.00    -0.79041E-02
 277.00   2.00    -0.41763E-02
 277.00   3.00    -0.42702E-03
 277.00   4.00     0.33427E-02
 277.00   5.00     0.71317E-02
 277.00   6.00     0.10939E-01
 277.00   7.00     0.14763E-01
 277.00   8.00     0.18603E-01
 277.00   9.00     0.22457E-01
 277.00  10.00     0.26325E-01
 277.00  11.00     0.30205E-01
 277.00  12.00     0.34096E-01
 277.00  13.00     0.37997E-01
 277.00  14.00     0.41907E-01
 277.00  15.00     0.45824E-01
 277.00  16.00     0.49747E-01
 277.00  17.00     0.53676E-01
 277.00  18.00     0.57608E-01
 277.00  19.00     0.61544E-01
 277.00  20.00     0.65480E-01
 277.00  21.00     0.69417E-01
 277.00  22.00     0.73354E-01
 277.00  23.00     0.77288E-01
 277.00  24.00     0.81219E-01
 277.00  25.00     0.85145E-01
 277.00  26.00     0.89066E-01
 277.00  27.00     0.92980E-01
 277.00  28.00     0.96885E-01
 277.00  29.00     0.10078    
 277.00  30.00     0.10467    
 277.00  31.00     0.10854    
 277.00  32.00     0.11240    
 277.00  33.00     0.11625    
 277.00  34.00     0.12008    
 277.00  35.00     0.12390    
 277.00  36.00     0.12770    
 277.00  37.00     0.13148    
 277.00  38.00     0.13524    
 277.00  39.00     0.13898    
 277.00  40.00     0.14270    
 277.00  41.00     0.14639    
 277.00  42.00     0.15006    
 277.00  43.00     0.15371    
 277.00  44.00     0.15732    
 277.00  45.00     0.16091    
 277.00  46.00     0.16447    
 277.00  47.00     0.16801    
 277.00  48.00     0.17151    
 277.00  49.00     0.17498    
 277.00  50.00     0.17841    
 277.00  51.00     0.18181    
 277.00  52.00     0.18518    
 277.00  53.00     0.18851    
 277.00  54.00     0.19180    
 277.00  55.00     0.19506    
 277.00  56.00     0.19827    
 277.00  57.00     0.20145    
 277.00  58.00     0.20458    
 277.00  59.00     0.20768    
 277.00  60.00     0.21073    
 277.00  61.00     0.21373    
 277.00  62.00     0.21669    
 277.00  63.00     0.21961    
 277.00  64.00     0.22248    
 277.00  65.00     0.22530    
 277.00  66.00     0.22807    
 277.00  67.00     0.23079    
 277.00  68.00     0.23347    
 277.00  69.00     0.23609    
 277.00  70.00     0.23866    
 277.00  71.00     0.24118    
 277.00  72.00     0.24365    
 277.00  73.00     0.24606    
 277.00  74.00     0.24841    
 277.00  75.00     0.25071    
 277.00  76.00     0.25296    
 277.00  77.00     0.25515    
 277.00  78.00     0.25728    
 277.00  79.00     0.25935    
 277.00  80.00     0.26137    
 277.00  81.00     0.26332    
 277.00  82.00     0.26521    
 277.00  83.00     0.26705    
 277.00  84.00     0.26882    
 277.00  85.00     0.27053    
 277.00  86.00     0.27218    
 277.00  87.00     0.27377    
 277.00  88.00     0.27529    
 277.00  89.00     0.27675    
 278.00 -89.00    -0.14641    
 278.00 -88.00    -0.14766    
 278.00 -87.00    -0.14886    
 278.00 -86.00    -0.14998    
 278.00 -85.00    -0.15105    
 278.00 -84.00    -0.15204    
 278.00 -83.00    -0.15297    
 278.00 -82.00    -0.15383    
 278.00 -81.00    -0.15463    
 278.00 -80.00    -0.15535    
 278.00 -79.00    -0.15601    
 278.00 -78.00    -0.15660    
 278.00 -77.00    -0.15713    
 278.00 -76.00    -0.15758    
 278.00 -75.00    -0.15797    
 278.00 -74.00    -0.15829    
 278.00 -73.00    -0.15854    
 278.00 -72.00    -0.15872    
 278.00 -71.00    -0.15884    
 278.00 -70.00    -0.15888    
 278.00 -69.00    -0.15886    
 278.00 -68.00    -0.15876    
 278.00 -67.00    -0.15860    
 278.00 -66.00    -0.15837    
 278.00 -65.00    -0.15807    
 278.00 -64.00    -0.15771    
 278.00 -63.00    -0.15727    
 278.00 -62.00    -0.15677    
 278.00 -61.00    -0.15620    
 278.00 -60.00    -0.15556    
 278.00 -59.00    -0.15485    
 278.00 -58.00    -0.15408    
 278.00 -57.00    -0.15324    
 278.00 -56.00    -0.15233    
 278.00 -55.00    -0.15135    
 278.00 -54.00    -0.15031    
 278.00 -53.00    -0.14921    
 278.00 -52.00    -0.14803    
 278.00 -51.00    -0.14679    
 278.00 -50.00    -0.14549    
 278.00 -49.00    -0.14412    
 278.00 -48.00    -0.14269    
 278.00 -47.00    -0.14119    
 278.00 -46.00    -0.13963    
 278.00 -45.00    -0.13801    
 278.00 -44.00    -0.13633    
 278.00 -43.00    -0.13458    
 278.00 -42.00    -0.13278    
 278.00 -41.00    -0.13091    
 278.00 -40.00    -0.12898    
 278.00 -39.00    -0.12699    
 278.00 -38.00    -0.12494    
 278.00 -37.00    -0.12284    
 278.00 -36.00    -0.12068    
 278.00 -35.00    -0.11846    
 278.00 -34.00    -0.11618    
 278.00 -33.00    -0.11385    
 278.00 -32.00    -0.11146    
 278.00 -31.00    -0.10902    
 278.00 -30.00    -0.10653    
 278.00 -29.00    -0.10398    
 278.00 -28.00    -0.10138    
 278.00 -27.00    -0.98730E-01
 278.00 -26.00    -0.96030E-01
 278.00 -25.00    -0.93280E-01
 278.00 -24.00    -0.90481E-01
 278.00 -23.00    -0.87635E-01
 278.00 -22.00    -0.84741E-01
 278.00 -21.00    -0.81801E-01
 278.00 -20.00    -0.78817E-01
 278.00 -19.00    -0.75787E-01
 278.00 -18.00    -0.72715E-01
 278.00 -17.00    -0.69600E-01
 278.00 -16.00    -0.66444E-01
 278.00 -15.00    -0.63247E-01
 278.00 -14.00    -0.60011E-01
 278.00 -13.00    -0.56736E-01
 278.00 -12.00    -0.53423E-01
 278.00 -11.00    -0.50074E-01
 278.00 -10.00    -0.46690E-01
 278.00  -9.00    -0.43271E-01
 278.00  -8.00    -0.39818E-01
 278.00  -7.00    -0.36333E-01
 278.00  -6.00    -0.32817E-01
 278.00  -5.00    -0.29271E-01
 278.00  -4.00    -0.25695E-01
 278.00  -3.00    -0.22092E-01
 278.00  -2.00    -0.18461E-01
 278.00  -1.00    -0.14804E-01
 278.00   0.00    -0.11123E-01
 278.00   1.00    -0.74178E-02
 278.00   2.00    -0.36902E-02
 278.00   3.00     0.58726E-04
 278.00   4.00     0.38279E-02
 278.00   5.00     0.76162E-02
 278.00   6.00     0.11422E-01
 278.00   7.00     0.15246E-01
 278.00   8.00     0.19084E-01
 278.00   9.00     0.22937E-01
 278.00  10.00     0.26804E-01
 278.00  11.00     0.30682E-01
 278.00  12.00     0.34572E-01
 278.00  13.00     0.38471E-01
 278.00  14.00     0.42378E-01
 278.00  15.00     0.46294E-01
 278.00  16.00     0.50215E-01
 278.00  17.00     0.54141E-01
 278.00  18.00     0.58071E-01
 278.00  19.00     0.62003E-01
 278.00  20.00     0.65937E-01
 278.00  21.00     0.69872E-01
 278.00  22.00     0.73805E-01
 278.00  23.00     0.77735E-01
 278.00  24.00     0.81663E-01
 278.00  25.00     0.85586E-01
 278.00  26.00     0.89503E-01
 278.00  27.00     0.93413E-01
 278.00  28.00     0.97315E-01
 278.00  29.00     0.10121    
 278.00  30.00     0.10509    
 278.00  31.00     0.10896    
 278.00  32.00     0.11282    
 278.00  33.00     0.11666    
 278.00  34.00     0.12049    
 278.00  35.00     0.12430    
 278.00  36.00     0.12809    
 278.00  37.00     0.13187    
 278.00  38.00     0.13562    
 278.00  39.00     0.13936    
 278.00  40.00     0.14307    
 278.00  41.00     0.14676    
 278.00  42.00     0.15042    
 278.00  43.00     0.15406    
 278.00  44.00     0.15767    
 278.00  45.00     0.16126    
 278.00  46.00     0.16481    
 278.00  47.00     0.16834    
 278.00  48.00     0.17183    
 278.00  49.00     0.17530    
 278.00  50.00     0.17872    
 278.00  51.00     0.18212    
 278.00  52.00     0.18548    
 278.00  53.00     0.18880    
 278.00  54.00     0.19209    
 278.00  55.00     0.19534    
 278.00  56.00     0.19855    
 278.00  57.00     0.20172    
 278.00  58.00     0.20484    
 278.00  59.00     0.20793    
 278.00  60.00     0.21097    
 278.00  61.00     0.21397    
 278.00  62.00     0.21692    
 278.00  63.00     0.21983    
 278.00  64.00     0.22269    
 278.00  65.00     0.22550    
 278.00  66.00     0.22827    
 278.00  67.00     0.23098    
 278.00  68.00     0.23365    
 278.00  69.00     0.23626    
 278.00  70.00     0.23883    
 278.00  71.00     0.24134    
 278.00  72.00     0.24380    
 278.00  73.00     0.24620    
 278.00  74.00     0.24855    
 278.00  75.00     0.25084    
 278.00  76.00     0.25308    
 278.00  77.00     0.25526    
 278.00  78.00     0.25738    
 278.00  79.00     0.25944    
 278.00  80.00     0.26145    
 278.00  81.00     0.26340    
 278.00  82.00     0.26528    
 278.00  83.00     0.26711    
 278.00  84.00     0.26887    
 278.00  85.00     0.27058    
 278.00  86.00     0.27222    
 278.00  87.00     0.27380    
 278.00  88.00     0.27531    
 278.00  89.00     0.27676    
 279.00 -89.00    -0.14640    
 279.00 -88.00    -0.14765    
 279.00 -87.00    -0.14883    
 279.00 -86.00    -0.14995    
 279.00 -85.00    -0.15100    
 279.00 -84.00    -0.15199    
 279.00 -83.00    -0.15291    
 279.00 -82.00    -0.15376    
 279.00 -81.00    -0.15455    
 279.00 -80.00    -0.15526    
 279.00 -79.00    -0.15591    
 279.00 -78.00    -0.15650    
 279.00 -77.00    -0.15701    
 279.00 -76.00    -0.15746    
 279.00 -75.00    -0.15784    
 279.00 -74.00    -0.15815    
 279.00 -73.00    -0.15839    
 279.00 -72.00    -0.15856    
 279.00 -71.00    -0.15867    
 279.00 -70.00    -0.15871    
 279.00 -69.00    -0.15867    
 279.00 -68.00    -0.15857    
 279.00 -67.00    -0.15840    
 279.00 -66.00    -0.15817    
 279.00 -65.00    -0.15786    
 279.00 -64.00    -0.15748    
 279.00 -63.00    -0.15704    
 279.00 -62.00    -0.15653    
 279.00 -61.00    -0.15595    
 279.00 -60.00    -0.15530    
 279.00 -59.00    -0.15459    
 279.00 -58.00    -0.15381    
 279.00 -57.00    -0.15296    
 279.00 -56.00    -0.15204    
 279.00 -55.00    -0.15106    
 279.00 -54.00    -0.15001    
 279.00 -53.00    -0.14890    
 279.00 -52.00    -0.14772    
 279.00 -51.00    -0.14647    
 279.00 -50.00    -0.14516    
 279.00 -49.00    -0.14379    
 279.00 -48.00    -0.14235    
 279.00 -47.00    -0.14085    
 279.00 -46.00    -0.13928    
 279.00 -45.00    -0.13765    
 279.00 -44.00    -0.13596    
 279.00 -43.00    -0.13421    
 279.00 -42.00    -0.13240    
 279.00 -41.00    -0.13052    
 279.00 -40.00    -0.12859    
 279.00 -39.00    -0.12659    
 279.00 -38.00    -0.12454    
 279.00 -37.00    -0.12243    
 279.00 -36.00    -0.12026    
 279.00 -35.00    -0.11804    
 279.00 -34.00    -0.11576    
 279.00 -33.00    -0.11342    
 279.00 -32.00    -0.11103    
 279.00 -31.00    -0.10858    
 279.00 -30.00    -0.10609    
 279.00 -29.00    -0.10353    
 279.00 -28.00    -0.10093    
 279.00 -27.00    -0.98276E-01
 279.00 -26.00    -0.95571E-01
 279.00 -25.00    -0.92818E-01
 279.00 -24.00    -0.90015E-01
 279.00 -23.00    -0.87165E-01
 279.00 -22.00    -0.84268E-01
 279.00 -21.00    -0.81325E-01
 279.00 -20.00    -0.78337E-01
 279.00 -19.00    -0.75305E-01
 279.00 -18.00    -0.72230E-01
 279.00 -17.00    -0.69112E-01
 279.00 -16.00    -0.65954E-01
 279.00 -15.00    -0.62754E-01
 279.00 -14.00    -0.59516E-01
 279.00 -13.00    -0.56239E-01
 279.00 -12.00    -0.52924E-01
 279.00 -11.00    -0.49574E-01
 279.00 -10.00    -0.46188E-01
 279.00  -9.00    -0.42767E-01
 279.00  -8.00    -0.39313E-01
 279.00  -7.00    -0.35827E-01
 279.00  -6.00    -0.32310E-01
 279.00  -5.00    -0.28763E-01
 279.00  -4.00    -0.25186E-01
 279.00  -3.00    -0.21582E-01
 279.00  -2.00    -0.17951E-01
 279.00  -1.00    -0.14294E-01
 279.00   0.00    -0.10613E-01
 279.00   1.00    -0.69078E-02
 279.00   2.00    -0.31805E-02
 279.00   3.00     0.56806E-03
 279.00   4.00     0.43367E-02
 279.00   5.00     0.81243E-02
 279.00   6.00     0.11930E-01
 279.00   7.00     0.15752E-01
 279.00   8.00     0.19589E-01
 279.00   9.00     0.23441E-01
 279.00  10.00     0.27306E-01
 279.00  11.00     0.31183E-01
 279.00  12.00     0.35070E-01
 279.00  13.00     0.38968E-01
 279.00  14.00     0.42873E-01
 279.00  15.00     0.46786E-01
 279.00  16.00     0.50705E-01
 279.00  17.00     0.54629E-01
 279.00  18.00     0.58556E-01
 279.00  19.00     0.62486E-01
 279.00  20.00     0.66417E-01
 279.00  21.00     0.70348E-01
 279.00  22.00     0.74277E-01
 279.00  23.00     0.78205E-01
 279.00  24.00     0.82129E-01
 279.00  25.00     0.86048E-01
 279.00  26.00     0.89961E-01
 279.00  27.00     0.93867E-01
 279.00  28.00     0.97765E-01
 279.00  29.00     0.10165    
 279.00  30.00     0.10553    
 279.00  31.00     0.10940    
 279.00  32.00     0.11325    
 279.00  33.00     0.11709    
 279.00  34.00     0.12091    
 279.00  35.00     0.12472    
 279.00  36.00     0.12851    
 279.00  37.00     0.13228    
 279.00  38.00     0.13603    
 279.00  39.00     0.13975    
 279.00  40.00     0.14346    
 279.00  41.00     0.14714    
 279.00  42.00     0.15080    
 279.00  43.00     0.15443    
 279.00  44.00     0.15804    
 279.00  45.00     0.16162    
 279.00  46.00     0.16517    
 279.00  47.00     0.16869    
 279.00  48.00     0.17217    
 279.00  49.00     0.17563    
 279.00  50.00     0.17905    
 279.00  51.00     0.18244    
 279.00  52.00     0.18579    
 279.00  53.00     0.18911    
 279.00  54.00     0.19239    
 279.00  55.00     0.19563    
 279.00  56.00     0.19883    
 279.00  57.00     0.20199    
 279.00  58.00     0.20511    
 279.00  59.00     0.20819    
 279.00  60.00     0.21123    
 279.00  61.00     0.21422    
 279.00  62.00     0.21716    
 279.00  63.00     0.22006    
 279.00  64.00     0.22291    
 279.00  65.00     0.22572    
 279.00  66.00     0.22848    
 279.00  67.00     0.23118    
 279.00  68.00     0.23384    
 279.00  69.00     0.23645    
 279.00  70.00     0.23900    
 279.00  71.00     0.24150    
 279.00  72.00     0.24395    
 279.00  73.00     0.24635    
 279.00  74.00     0.24869    
 279.00  75.00     0.25097    
 279.00  76.00     0.25320    
 279.00  77.00     0.25537    
 279.00  78.00     0.25749    
 279.00  79.00     0.25954    
 279.00  80.00     0.26154    
 279.00  81.00     0.26348    
 279.00  82.00     0.26535    
 279.00  83.00     0.26717    
 279.00  84.00     0.26893    
 279.00  85.00     0.27062    
 279.00  86.00     0.27225    
 279.00  87.00     0.27382    
 279.00  88.00     0.27533    
 279.00  89.00     0.27677    
 280.00 -89.00    -0.14639    
 280.00 -88.00    -0.14763    
 280.00 -87.00    -0.14880    
 280.00 -86.00    -0.14991    
 280.00 -85.00    -0.15095    
 280.00 -84.00    -0.15193    
 280.00 -83.00    -0.15284    
 280.00 -82.00    -0.15369    
 280.00 -81.00    -0.15446    
 280.00 -80.00    -0.15517    
 280.00 -79.00    -0.15581    
 280.00 -78.00    -0.15639    
 280.00 -77.00    -0.15689    
 280.00 -76.00    -0.15733    
 280.00 -75.00    -0.15770    
 280.00 -74.00    -0.15800    
 280.00 -73.00    -0.15824    
 280.00 -72.00    -0.15840    
 280.00 -71.00    -0.15850    
 280.00 -70.00    -0.15852    
 280.00 -69.00    -0.15848    
 280.00 -68.00    -0.15837    
 280.00 -67.00    -0.15819    
 280.00 -66.00    -0.15795    
 280.00 -65.00    -0.15763    
 280.00 -64.00    -0.15725    
 280.00 -63.00    -0.15680    
 280.00 -62.00    -0.15628    
 280.00 -61.00    -0.15569    
 280.00 -60.00    -0.15504    
 280.00 -59.00    -0.15432    
 280.00 -58.00    -0.15353    
 280.00 -57.00    -0.15267    
 280.00 -56.00    -0.15175    
 280.00 -55.00    -0.15076    
 280.00 -54.00    -0.14970    
 280.00 -53.00    -0.14858    
 280.00 -52.00    -0.14739    
 280.00 -51.00    -0.14614    
 280.00 -50.00    -0.14482    
 280.00 -49.00    -0.14344    
 280.00 -48.00    -0.14199    
 280.00 -47.00    -0.14048    
 280.00 -46.00    -0.13891    
 280.00 -45.00    -0.13728    
 280.00 -44.00    -0.13558    
 280.00 -43.00    -0.13382    
 280.00 -42.00    -0.13200    
 280.00 -41.00    -0.13012    
 280.00 -40.00    -0.12818    
 280.00 -39.00    -0.12618    
 280.00 -38.00    -0.12412    
 280.00 -37.00    -0.12201    
 280.00 -36.00    -0.11983    
 280.00 -35.00    -0.11760    
 280.00 -34.00    -0.11532    
 280.00 -33.00    -0.11297    
 280.00 -32.00    -0.11058    
 280.00 -31.00    -0.10813    
 280.00 -30.00    -0.10562    
 280.00 -29.00    -0.10307    
 280.00 -28.00    -0.10046    
 280.00 -27.00    -0.97801E-01
 280.00 -26.00    -0.95092E-01
 280.00 -25.00    -0.92334E-01
 280.00 -24.00    -0.89528E-01
 280.00 -23.00    -0.86674E-01
 280.00 -22.00    -0.83773E-01
 280.00 -21.00    -0.80827E-01
 280.00 -20.00    -0.77836E-01
 280.00 -19.00    -0.74801E-01
 280.00 -18.00    -0.71723E-01
 280.00 -17.00    -0.68602E-01
 280.00 -16.00    -0.65441E-01
 280.00 -15.00    -0.62239E-01
 280.00 -14.00    -0.58998E-01
 280.00 -13.00    -0.55719E-01
 280.00 -12.00    -0.52403E-01
 280.00 -11.00    -0.49050E-01
 280.00 -10.00    -0.45662E-01
 280.00  -9.00    -0.42240E-01
 280.00  -8.00    -0.38785E-01
 280.00  -7.00    -0.35298E-01
 280.00  -6.00    -0.31779E-01
 280.00  -5.00    -0.28231E-01
 280.00  -4.00    -0.24654E-01
 280.00  -3.00    -0.21049E-01
 280.00  -2.00    -0.17418E-01
 280.00  -1.00    -0.13761E-01
 280.00   0.00    -0.10079E-01
 280.00   1.00    -0.63744E-02
 280.00   2.00    -0.26473E-02
 280.00   3.00     0.11009E-02
 280.00   4.00     0.48690E-02
 280.00   5.00     0.86558E-02
 280.00   6.00     0.12460E-01
 280.00   7.00     0.16281E-01
 280.00   8.00     0.20118E-01
 280.00   9.00     0.23968E-01
 280.00  10.00     0.27831E-01
 280.00  11.00     0.31707E-01
 280.00  12.00     0.35592E-01
 280.00  13.00     0.39488E-01
 280.00  14.00     0.43391E-01
 280.00  15.00     0.47302E-01
 280.00  16.00     0.51218E-01
 280.00  17.00     0.55139E-01
 280.00  18.00     0.59063E-01
 280.00  19.00     0.62990E-01
 280.00  20.00     0.66918E-01
 280.00  21.00     0.70846E-01
 280.00  22.00     0.74772E-01
 280.00  23.00     0.78696E-01
 280.00  24.00     0.82616E-01
 280.00  25.00     0.86532E-01
 280.00  26.00     0.90441E-01
 280.00  27.00     0.94343E-01
 280.00  28.00     0.98236E-01
 280.00  29.00     0.10212    
 280.00  30.00     0.10599    
 280.00  31.00     0.10985    
 280.00  32.00     0.11370    
 280.00  33.00     0.11754    
 280.00  34.00     0.12135    
 280.00  35.00     0.12515    
 280.00  36.00     0.12894    
 280.00  37.00     0.13270    
 280.00  38.00     0.13645    
 280.00  39.00     0.14017    
 280.00  40.00     0.14387    
 280.00  41.00     0.14755    
 280.00  42.00     0.15120    
 280.00  43.00     0.15482    
 280.00  44.00     0.15842    
 280.00  45.00     0.16200    
 280.00  46.00     0.16554    
 280.00  47.00     0.16905    
 280.00  48.00     0.17253    
 280.00  49.00     0.17598    
 280.00  50.00     0.17940    
 280.00  51.00     0.18278    
 280.00  52.00     0.18612    
 280.00  53.00     0.18943    
 280.00  54.00     0.19270    
 280.00  55.00     0.19594    
 280.00  56.00     0.19913    
 280.00  57.00     0.20228    
 280.00  58.00     0.20540    
 280.00  59.00     0.20847    
 280.00  60.00     0.21149    
 280.00  61.00     0.21447    
 280.00  62.00     0.21741    
 280.00  63.00     0.22030    
 280.00  64.00     0.22315    
 280.00  65.00     0.22594    
 280.00  66.00     0.22869    
 280.00  67.00     0.23139    
 280.00  68.00     0.23404    
 280.00  69.00     0.23664    
 280.00  70.00     0.23918    
 280.00  71.00     0.24168    
 280.00  72.00     0.24412    
 280.00  73.00     0.24650    
 280.00  74.00     0.24883    
 280.00  75.00     0.25111    
 280.00  76.00     0.25333    
 280.00  77.00     0.25549    
 280.00  78.00     0.25760    
 280.00  79.00     0.25964    
 280.00  80.00     0.26163    
 280.00  81.00     0.26356    
 280.00  82.00     0.26543    
 280.00  83.00     0.26724    
 280.00  84.00     0.26898    
 280.00  85.00     0.27067    
 280.00  86.00     0.27229    
 280.00  87.00     0.27385    
 280.00  88.00     0.27535    
 280.00  89.00     0.27678    
 281.00 -89.00    -0.14638    
 281.00 -88.00    -0.14761    
 281.00 -87.00    -0.14877    
 281.00 -86.00    -0.14987    
 281.00 -85.00    -0.15091    
 281.00 -84.00    -0.15187    
 281.00 -83.00    -0.15277    
 281.00 -82.00    -0.15361    
 281.00 -81.00    -0.15437    
 281.00 -80.00    -0.15507    
 281.00 -79.00    -0.15571    
 281.00 -78.00    -0.15627    
 281.00 -77.00    -0.15677    
 281.00 -76.00    -0.15720    
 281.00 -75.00    -0.15756    
 281.00 -74.00    -0.15785    
 281.00 -73.00    -0.15807    
 281.00 -72.00    -0.15823    
 281.00 -71.00    -0.15831    
 281.00 -70.00    -0.15833    
 281.00 -69.00    -0.15828    
 281.00 -68.00    -0.15816    
 281.00 -67.00    -0.15798    
 281.00 -66.00    -0.15772    
 281.00 -65.00    -0.15740    
 281.00 -64.00    -0.15701    
 281.00 -63.00    -0.15655    
 281.00 -62.00    -0.15602    
 281.00 -61.00    -0.15542    
 281.00 -60.00    -0.15476    
 281.00 -59.00    -0.15403    
 281.00 -58.00    -0.15323    
 281.00 -57.00    -0.15237    
 281.00 -56.00    -0.15143    
 281.00 -55.00    -0.15044    
 281.00 -54.00    -0.14937    
 281.00 -53.00    -0.14824    
 281.00 -52.00    -0.14705    
 281.00 -51.00    -0.14579    
 281.00 -50.00    -0.14446    
 281.00 -49.00    -0.14307    
 281.00 -48.00    -0.14162    
 281.00 -47.00    -0.14010    
 281.00 -46.00    -0.13852    
 281.00 -45.00    -0.13688    
 281.00 -44.00    -0.13518    
 281.00 -43.00    -0.13341    
 281.00 -42.00    -0.13159    
 281.00 -41.00    -0.12970    
 281.00 -40.00    -0.12775    
 281.00 -39.00    -0.12575    
 281.00 -38.00    -0.12368    
 281.00 -37.00    -0.12156    
 281.00 -36.00    -0.11938    
 281.00 -35.00    -0.11715    
 281.00 -34.00    -0.11485    
 281.00 -33.00    -0.11251    
 281.00 -32.00    -0.11010    
 281.00 -31.00    -0.10765    
 281.00 -30.00    -0.10514    
 281.00 -29.00    -0.10258    
 281.00 -28.00    -0.99968E-01
 281.00 -27.00    -0.97304E-01
 281.00 -26.00    -0.94591E-01
 281.00 -25.00    -0.91829E-01
 281.00 -24.00    -0.89019E-01
 281.00 -23.00    -0.86161E-01
 281.00 -22.00    -0.83257E-01
 281.00 -21.00    -0.80307E-01
 281.00 -20.00    -0.77313E-01
 281.00 -19.00    -0.74274E-01
 281.00 -18.00    -0.71193E-01
 281.00 -17.00    -0.68070E-01
 281.00 -16.00    -0.64905E-01
 281.00 -15.00    -0.61701E-01
 281.00 -14.00    -0.58458E-01
 281.00 -13.00    -0.55176E-01
 281.00 -12.00    -0.51858E-01
 281.00 -11.00    -0.48503E-01
 281.00 -10.00    -0.45114E-01
 281.00  -9.00    -0.41690E-01
 281.00  -8.00    -0.38233E-01
 281.00  -7.00    -0.34745E-01
 281.00  -6.00    -0.31226E-01
 281.00  -5.00    -0.27677E-01
 281.00  -4.00    -0.24099E-01
 281.00  -3.00    -0.20493E-01
 281.00  -2.00    -0.16861E-01
 281.00  -1.00    -0.13204E-01
 281.00   0.00    -0.95224E-02
 281.00   1.00    -0.58176E-02
 281.00   2.00    -0.20908E-02
 281.00   3.00     0.16570E-02
 281.00   4.00     0.54245E-02
 281.00   5.00     0.92106E-02
 281.00   6.00     0.13014E-01
 281.00   7.00     0.16834E-01
 281.00   8.00     0.20669E-01
 281.00   9.00     0.24518E-01
 281.00  10.00     0.28380E-01
 281.00  11.00     0.32253E-01
 281.00  12.00     0.36137E-01
 281.00  13.00     0.40030E-01
 281.00  14.00     0.43931E-01
 281.00  15.00     0.47839E-01
 281.00  16.00     0.51753E-01
 281.00  17.00     0.55671E-01
 281.00  18.00     0.59593E-01
 281.00  19.00     0.63517E-01
 281.00  20.00     0.67441E-01
 281.00  21.00     0.71366E-01
 281.00  22.00     0.75289E-01
 281.00  23.00     0.79209E-01
 281.00  24.00     0.83125E-01
 281.00  25.00     0.87036E-01
 281.00  26.00     0.90941E-01
 281.00  27.00     0.94839E-01
 281.00  28.00     0.98728E-01
 281.00  29.00     0.10261    
 281.00  30.00     0.10648    
 281.00  31.00     0.11033    
 281.00  32.00     0.11417    
 281.00  33.00     0.11800    
 281.00  34.00     0.12181    
 281.00  35.00     0.12561    
 281.00  36.00     0.12939    
 281.00  37.00     0.13315    
 281.00  38.00     0.13688    
 281.00  39.00     0.14060    
 281.00  40.00     0.14430    
 281.00  41.00     0.14797    
 281.00  42.00     0.15161    
 281.00  43.00     0.15523    
 281.00  44.00     0.15882    
 281.00  45.00     0.16239    
 281.00  46.00     0.16592    
 281.00  47.00     0.16943    
 281.00  48.00     0.17290    
 281.00  49.00     0.17635    
 281.00  50.00     0.17975    
 281.00  51.00     0.18313    
 281.00  52.00     0.18646    
 281.00  53.00     0.18977    
 281.00  54.00     0.19303    
 281.00  55.00     0.19626    
 281.00  56.00     0.19944    
 281.00  57.00     0.20259    
 281.00  58.00     0.20569    
 281.00  59.00     0.20875    
 281.00  60.00     0.21177    
 281.00  61.00     0.21474    
 281.00  62.00     0.21767    
 281.00  63.00     0.22056    
 281.00  64.00     0.22339    
 281.00  65.00     0.22618    
 281.00  66.00     0.22892    
 281.00  67.00     0.23161    
 281.00  68.00     0.23425    
 281.00  69.00     0.23684    
 281.00  70.00     0.23938    
 281.00  71.00     0.24186    
 281.00  72.00     0.24429    
 281.00  73.00     0.24667    
 281.00  74.00     0.24899    
 281.00  75.00     0.25125    
 281.00  76.00     0.25346    
 281.00  77.00     0.25562    
 281.00  78.00     0.25771    
 281.00  79.00     0.25975    
 281.00  80.00     0.26173    
 281.00  81.00     0.26365    
 281.00  82.00     0.26551    
 281.00  83.00     0.26730    
 281.00  84.00     0.26904    
 281.00  85.00     0.27072    
 281.00  86.00     0.27233    
 281.00  87.00     0.27388    
 281.00  88.00     0.27537    
 281.00  89.00     0.27679    
 282.00 -89.00    -0.14637    
 282.00 -88.00    -0.14759    
 282.00 -87.00    -0.14874    
 282.00 -86.00    -0.14983    
 282.00 -85.00    -0.15086    
 282.00 -84.00    -0.15181    
 282.00 -83.00    -0.15270    
 282.00 -82.00    -0.15353    
 282.00 -81.00    -0.15428    
 282.00 -80.00    -0.15497    
 282.00 -79.00    -0.15560    
 282.00 -78.00    -0.15615    
 282.00 -77.00    -0.15664    
 282.00 -76.00    -0.15706    
 282.00 -75.00    -0.15741    
 282.00 -74.00    -0.15769    
 282.00 -73.00    -0.15790    
 282.00 -72.00    -0.15805    
 282.00 -71.00    -0.15813    
 282.00 -70.00    -0.15813    
 282.00 -69.00    -0.15808    
 282.00 -68.00    -0.15795    
 282.00 -67.00    -0.15775    
 282.00 -66.00    -0.15749    
 282.00 -65.00    -0.15715    
 282.00 -64.00    -0.15675    
 282.00 -63.00    -0.15628    
 282.00 -62.00    -0.15575    
 282.00 -61.00    -0.15514    
 282.00 -60.00    -0.15447    
 282.00 -59.00    -0.15373    
 282.00 -58.00    -0.15292    
 282.00 -57.00    -0.15205    
 282.00 -56.00    -0.15111    
 282.00 -55.00    -0.15010    
 282.00 -54.00    -0.14903    
 282.00 -53.00    -0.14789    
 282.00 -52.00    -0.14669    
 282.00 -51.00    -0.14542    
 282.00 -50.00    -0.14409    
 282.00 -49.00    -0.14269    
 282.00 -48.00    -0.14123    
 282.00 -47.00    -0.13971    
 282.00 -46.00    -0.13812    
 282.00 -45.00    -0.13647    
 282.00 -44.00    -0.13476    
 282.00 -43.00    -0.13299    
 282.00 -42.00    -0.13115    
 282.00 -41.00    -0.12926    
 282.00 -40.00    -0.12731    
 282.00 -39.00    -0.12530    
 282.00 -38.00    -0.12323    
 282.00 -37.00    -0.12110    
 282.00 -36.00    -0.11891    
 282.00 -35.00    -0.11667    
 282.00 -34.00    -0.11437    
 282.00 -33.00    -0.11202    
 282.00 -32.00    -0.10961    
 282.00 -31.00    -0.10715    
 282.00 -30.00    -0.10464    
 282.00 -29.00    -0.10207    
 282.00 -28.00    -0.99455E-01
 282.00 -27.00    -0.96788E-01
 282.00 -26.00    -0.94070E-01
 282.00 -25.00    -0.91304E-01
 282.00 -24.00    -0.88489E-01
 282.00 -23.00    -0.85627E-01
 282.00 -22.00    -0.82719E-01
 282.00 -21.00    -0.79766E-01
 282.00 -20.00    -0.76768E-01
 282.00 -19.00    -0.73726E-01
 282.00 -18.00    -0.70641E-01
 282.00 -17.00    -0.67515E-01
 282.00 -16.00    -0.64348E-01
 282.00 -15.00    -0.61141E-01
 282.00 -14.00    -0.57895E-01
 282.00 -13.00    -0.54611E-01
 282.00 -12.00    -0.51290E-01
 282.00 -11.00    -0.47934E-01
 282.00 -10.00    -0.44542E-01
 282.00  -9.00    -0.41117E-01
 282.00  -8.00    -0.37659E-01
 282.00  -7.00    -0.34169E-01
 282.00  -6.00    -0.30649E-01
 282.00  -5.00    -0.27099E-01
 282.00  -4.00    -0.23520E-01
 282.00  -3.00    -0.19914E-01
 282.00  -2.00    -0.16282E-01
 282.00  -1.00    -0.12624E-01
 282.00   0.00    -0.89423E-02
 282.00   1.00    -0.52376E-02
 282.00   2.00    -0.15111E-02
 282.00   3.00     0.22362E-02
 282.00   4.00     0.60031E-02
 282.00   5.00     0.97884E-02
 282.00   6.00     0.13591E-01
 282.00   7.00     0.17410E-01
 282.00   8.00     0.21243E-01
 282.00   9.00     0.25091E-01
 282.00  10.00     0.28951E-01
 282.00  11.00     0.32823E-01
 282.00  12.00     0.36704E-01
 282.00  13.00     0.40595E-01
 282.00  14.00     0.44494E-01
 282.00  15.00     0.48400E-01
 282.00  16.00     0.52311E-01
 282.00  17.00     0.56226E-01
 282.00  18.00     0.60145E-01
 282.00  19.00     0.64065E-01
 282.00  20.00     0.67986E-01
 282.00  21.00     0.71907E-01
 282.00  22.00     0.75826E-01
 282.00  23.00     0.79743E-01
 282.00  24.00     0.83655E-01
 282.00  25.00     0.87562E-01
 282.00  26.00     0.91463E-01
 282.00  27.00     0.95356E-01
 282.00  28.00     0.99240E-01
 282.00  29.00     0.10311    
 282.00  30.00     0.10698    
 282.00  31.00     0.11083    
 282.00  32.00     0.11467    
 282.00  33.00     0.11849    
 282.00  34.00     0.12230    
 282.00  35.00     0.12609    
 282.00  36.00     0.12986    
 282.00  37.00     0.13361    
 282.00  38.00     0.13734    
 282.00  39.00     0.14105    
 282.00  40.00     0.14474    
 282.00  41.00     0.14840    
 282.00  42.00     0.15204    
 282.00  43.00     0.15566    
 282.00  44.00     0.15924    
 282.00  45.00     0.16280    
 282.00  46.00     0.16633    
 282.00  47.00     0.16983    
 282.00  48.00     0.17329    
 282.00  49.00     0.17673    
 282.00  50.00     0.18013    
 282.00  51.00     0.18349    
 282.00  52.00     0.18682    
 282.00  53.00     0.19012    
 282.00  54.00     0.19337    
 282.00  55.00     0.19659    
 282.00  56.00     0.19977    
 282.00  57.00     0.20290    
 282.00  58.00     0.20600    
 282.00  59.00     0.20905    
 282.00  60.00     0.21206    
 282.00  61.00     0.21503    
 282.00  62.00     0.21795    
 282.00  63.00     0.22082    
 282.00  64.00     0.22365    
 282.00  65.00     0.22643    
 282.00  66.00     0.22916    
 282.00  67.00     0.23184    
 282.00  68.00     0.23447    
 282.00  69.00     0.23705    
 282.00  70.00     0.23957    
 282.00  71.00     0.24205    
 282.00  72.00     0.24447    
 282.00  73.00     0.24684    
 282.00  74.00     0.24915    
 282.00  75.00     0.25140    
 282.00  76.00     0.25360    
 282.00  77.00     0.25575    
 282.00  78.00     0.25783    
 282.00  79.00     0.25986    
 282.00  80.00     0.26183    
 282.00  81.00     0.26374    
 282.00  82.00     0.26559    
 282.00  83.00     0.26737    
 282.00  84.00     0.26910    
 282.00  85.00     0.27077    
 282.00  86.00     0.27237    
 282.00  87.00     0.27391    
 282.00  88.00     0.27539    
 282.00  89.00     0.27680    
 283.00 -89.00    -0.14636    
 283.00 -88.00    -0.14757    
 283.00 -87.00    -0.14871    
 283.00 -86.00    -0.14979    
 283.00 -85.00    -0.15080    
 283.00 -84.00    -0.15175    
 283.00 -83.00    -0.15263    
 283.00 -82.00    -0.15344    
 283.00 -81.00    -0.15419    
 283.00 -80.00    -0.15487    
 283.00 -79.00    -0.15548    
 283.00 -78.00    -0.15603    
 283.00 -77.00    -0.15650    
 283.00 -76.00    -0.15691    
 283.00 -75.00    -0.15725    
 283.00 -74.00    -0.15752    
 283.00 -73.00    -0.15773    
 283.00 -72.00    -0.15786    
 283.00 -71.00    -0.15793    
 283.00 -70.00    -0.15793    
 283.00 -69.00    -0.15786    
 283.00 -68.00    -0.15772    
 283.00 -67.00    -0.15752    
 283.00 -66.00    -0.15724    
 283.00 -65.00    -0.15690    
 283.00 -64.00    -0.15649    
 283.00 -63.00    -0.15601    
 283.00 -62.00    -0.15546    
 283.00 -61.00    -0.15485    
 283.00 -60.00    -0.15417    
 283.00 -59.00    -0.15342    
 283.00 -58.00    -0.15260    
 283.00 -57.00    -0.15172    
 283.00 -56.00    -0.15077    
 283.00 -55.00    -0.14976    
 283.00 -54.00    -0.14868    
 283.00 -53.00    -0.14753    
 283.00 -52.00    -0.14632    
 283.00 -51.00    -0.14504    
 283.00 -50.00    -0.14370    
 283.00 -49.00    -0.14230    
 283.00 -48.00    -0.14083    
 283.00 -47.00    -0.13930    
 283.00 -46.00    -0.13770    
 283.00 -45.00    -0.13604    
 283.00 -44.00    -0.13433    
 283.00 -43.00    -0.13255    
 283.00 -42.00    -0.13071    
