 331.00  13.00    -0.11607    
 331.00  14.00    -0.80880E-01
 331.00  15.00    -0.60495E-01
 331.00  16.00    -0.56370E-01
 331.00  17.00    -0.68146E-01
 331.00  18.00    -0.93677E-01
 331.00  19.00    -0.12926    
 331.00  20.00    -0.17002    
 331.00  21.00    -0.21046    
 331.00  22.00    -0.24507    
 331.00  23.00    -0.26891    
 331.00  24.00    -0.27818    
 331.00  25.00    -0.27067    
 331.00  26.00    -0.24599    
 331.00  27.00    -0.20563    
 331.00  28.00    -0.15287    
 331.00  29.00    -0.92373E-01
 331.00  30.00    -0.29755E-01
 331.00  31.00     0.29025E-01
 331.00  32.00     0.78282E-01
 331.00  33.00     0.11320    
 331.00  34.00     0.13031    
 331.00  35.00     0.12786    
 331.00  36.00     0.10596    
 331.00  37.00     0.66532E-01
 331.00  38.00     0.13095E-01
 331.00  39.00    -0.49646E-01
 331.00  40.00    -0.11631    
 331.00  41.00    -0.18144    
 331.00  42.00    -0.24002    
 331.00  43.00    -0.28803    
 331.00  44.00    -0.32284    
 331.00  45.00    -0.34334    
 331.00  46.00    -0.35007    
 331.00  47.00    -0.34504    
 331.00  48.00    -0.33140    
 331.00  49.00    -0.31303    
 331.00  50.00    -0.29406    
 331.00  51.00    -0.27834    
 331.00  52.00    -0.26899    
 331.00  53.00    -0.26806    
 331.00  54.00    -0.27631    
 331.00  55.00    -0.29311    
 331.00  56.00    -0.31664    
 331.00  57.00    -0.34414    
 331.00  58.00    -0.37219    
 331.00  59.00    -0.39733    
 331.00  60.00    -0.41625    
 331.00  61.00    -0.42641    
 331.00  62.00    -0.42621    
 331.00  63.00    -0.41559    
 331.00  64.00    -0.39528    
 331.00  65.00    -0.36734    
 331.00  66.00    -0.33466    
 331.00  67.00    -0.30069    
 331.00  68.00    -0.26880    
 331.00  69.00    -0.24239    
 331.00  70.00    -0.22377    
 331.00  71.00    -0.21418    
 331.00  72.00    -0.21406    
 331.00  73.00    -0.22251    
 331.00  74.00    -0.23769    
 331.00  75.00    -0.25645    
 331.00  76.00    -0.27608    
 331.00  77.00    -0.29300    
 331.00  78.00    -0.30395    
 331.00  79.00    -0.30704    
 331.00  80.00    -0.30067    
 331.00  81.00    -0.28457    
 331.00  82.00    -0.25941    
 331.00  83.00    -0.22695    
 331.00  84.00    -0.18917    
 331.00  85.00    -0.14946    
 331.00  86.00    -0.11020    
 331.00  87.00    -0.73236E-01
 331.00  88.00    -0.40443E-01
 331.00  89.00    -0.13134E-01
 332.00 -89.00     0.14450    
 332.00 -88.00     0.87827E-01
 332.00 -87.00     0.27489E-01
 332.00 -86.00    -0.34515E-01
 332.00 -85.00    -0.95301E-01
 332.00 -84.00    -0.15325    
 332.00 -83.00    -0.20590    
 332.00 -82.00    -0.25178    
 332.00 -81.00    -0.28952    
 332.00 -80.00    -0.31928    
 332.00 -79.00    -0.33990    
 332.00 -78.00    -0.35222    
 332.00 -77.00    -0.35663    
 332.00 -76.00    -0.35365    
 332.00 -75.00    -0.34429    
 332.00 -74.00    -0.32877    
 332.00 -73.00    -0.30776    
 332.00 -72.00    -0.28152    
 332.00 -71.00    -0.25042    
 332.00 -70.00    -0.21492    
 332.00 -69.00    -0.17502    
 332.00 -68.00    -0.13118    
 332.00 -67.00    -0.84176E-01
 332.00 -66.00    -0.34885E-01
 332.00 -65.00     0.15554E-01
 332.00 -64.00     0.65164E-01
 332.00 -63.00     0.11246    
 332.00 -62.00     0.15522    
 332.00 -61.00     0.19181    
 332.00 -60.00     0.22026    
 332.00 -59.00     0.23930    
 332.00 -58.00     0.24799    
 332.00 -57.00     0.24609    
 332.00 -56.00     0.23405    
 332.00 -55.00     0.21283    
 332.00 -54.00     0.18412    
 332.00 -53.00     0.14996    
 332.00 -52.00     0.11263    
 332.00 -51.00     0.74466E-01
 332.00 -50.00     0.37614E-01
 332.00 -49.00     0.38591E-02
 332.00 -48.00    -0.25522E-01
 332.00 -47.00    -0.49846E-01
 332.00 -46.00    -0.69035E-01
 332.00 -45.00    -0.83554E-01
 332.00 -44.00    -0.94292E-01
 332.00 -43.00    -0.10238    
 332.00 -42.00    -0.10902    
 332.00 -41.00    -0.11525    
 332.00 -40.00    -0.12182    
 332.00 -39.00    -0.12906    
 332.00 -38.00    -0.13681    
 332.00 -37.00    -0.14448    
 332.00 -36.00    -0.15113    
 332.00 -35.00    -0.15564    
 332.00 -34.00    -0.15692    
 332.00 -33.00    -0.15411    
 332.00 -32.00    -0.14678    
 332.00 -31.00    -0.13511    
 332.00 -30.00    -0.11995    
 332.00 -29.00    -0.10285    
 332.00 -28.00    -0.85913E-01
 332.00 -27.00    -0.71641E-01
 332.00 -26.00    -0.62675E-01
 332.00 -25.00    -0.61481E-01
 332.00 -24.00    -0.70043E-01
 332.00 -23.00    -0.89570E-01
 332.00 -22.00    -0.12028    
 332.00 -21.00    -0.16127    
 332.00 -20.00    -0.21051    
 332.00 -19.00    -0.26496    
 332.00 -18.00    -0.32082    
 332.00 -17.00    -0.37386    
 332.00 -16.00    -0.41980    
 332.00 -15.00    -0.45480    
 332.00 -14.00    -0.47583    
 332.00 -13.00    -0.48103    
 332.00 -12.00    -0.46992    
 332.00 -11.00    -0.44352    
 332.00 -10.00    -0.40429    
 332.00  -9.00    -0.35589    
 332.00  -8.00    -0.30288    
 332.00  -7.00    -0.25020    
 332.00  -6.00    -0.20277    
 332.00  -5.00    -0.16488    
 332.00  -4.00    -0.13981    
 332.00  -3.00    -0.12949    
 332.00  -2.00    -0.13425    
 332.00  -1.00    -0.15283    
 332.00   0.00    -0.18250    
 332.00   1.00    -0.21938    
 332.00   2.00    -0.25885    
 332.00   3.00    -0.29606    
 332.00   4.00    -0.32650    
 332.00   5.00    -0.34647    
 332.00   6.00    -0.35351    
 332.00   7.00    -0.34667    
 332.00   8.00    -0.32662    
 332.00   9.00    -0.29560    
 332.00  10.00    -0.25710    
 332.00  11.00    -0.21553    
 332.00  12.00    -0.17569    
 332.00  13.00    -0.14220    
 332.00  14.00    -0.11897    
 332.00  15.00    -0.10875    
 332.00  16.00    -0.11277    
 332.00  17.00    -0.13057    
 332.00  18.00    -0.16007    
 332.00  19.00    -0.19771    
 332.00  20.00    -0.23887    
 332.00  21.00    -0.27836    
 332.00  22.00    -0.31100    
 332.00  23.00    -0.33217    
 332.00  24.00    -0.33839    
 332.00  25.00    -0.32767    
 332.00  26.00    -0.29979    
 332.00  27.00    -0.25633    
 332.00  28.00    -0.20055    
 332.00  29.00    -0.13707    
 332.00  30.00    -0.71400E-01
 332.00  31.00    -0.93404E-02
 332.00  32.00     0.43565E-01
 332.00  33.00     0.82623E-01
 332.00  34.00     0.10445    
 332.00  35.00     0.10732    
 332.00  36.00     0.91283E-01
 332.00  37.00     0.58139E-01
 332.00  38.00     0.11209E-01
 332.00  39.00    -0.45057E-01
 332.00  40.00    -0.10558    
 332.00  41.00    -0.16520    
 332.00  42.00    -0.21922    
 332.00  43.00    -0.26392    
 332.00  44.00    -0.29684    
 332.00  45.00    -0.31706    
 332.00  46.00    -0.32516    
 332.00  47.00    -0.32311    
 332.00  48.00    -0.31394    
 332.00  49.00    -0.30132    
 332.00  50.00    -0.28909    
 332.00  51.00    -0.28077    
 332.00  52.00    -0.27911    
 332.00  53.00    -0.28579    
 332.00  54.00    -0.30121    
 332.00  55.00    -0.32445    
 332.00  56.00    -0.35343    
 332.00  57.00    -0.38518    
 332.00  58.00    -0.41616    
 332.00  59.00    -0.44288    
 332.00  60.00    -0.46206    
 332.00  61.00    -0.47126    
 332.00  62.00    -0.46901    
 332.00  63.00    -0.45545    
 332.00  64.00    -0.43152    
 332.00  65.00    -0.39949    
 332.00  66.00    -0.36245    
 332.00  67.00    -0.32409    
 332.00  68.00    -0.28790    
 332.00  69.00    -0.25747    
 332.00  70.00    -0.23523    
 332.00  71.00    -0.22244    
 332.00  72.00    -0.21962    
 332.00  73.00    -0.22591    
 332.00  74.00    -0.23941    
 332.00  75.00    -0.25699    
 332.00  76.00    -0.27586    
 332.00  77.00    -0.29232    
 332.00  78.00    -0.30310    
 332.00  79.00    -0.30618    
 332.00  80.00    -0.29998    
 332.00  81.00    -0.28405    
 332.00  82.00    -0.25917    
 332.00  83.00    -0.22689    
 332.00  84.00    -0.18925    
 332.00  85.00    -0.14969    
 332.00  86.00    -0.11044    
 332.00  87.00    -0.73443E-01
 332.00  88.00    -0.40565E-01
 332.00  89.00    -0.13168E-01
 333.00 -89.00     0.14474    
 333.00 -88.00     0.88526E-01
 333.00 -87.00     0.28794E-01
 333.00 -86.00    -0.32390E-01
 333.00 -85.00    -0.92210E-01
 333.00 -84.00    -0.14903    
 333.00 -83.00    -0.20074    
 333.00 -82.00    -0.24548    
 333.00 -81.00    -0.28230    
 333.00 -80.00    -0.31138    
 333.00 -79.00    -0.33154    
 333.00 -78.00    -0.34379    
 333.00 -77.00    -0.34855    
 333.00 -76.00    -0.34640    
 333.00 -75.00    -0.33828    
 333.00 -74.00    -0.32443    
 333.00 -73.00    -0.30551    
 333.00 -72.00    -0.28171    
 333.00 -71.00    -0.25336    
 333.00 -70.00    -0.22083    
 333.00 -69.00    -0.18408    
 333.00 -68.00    -0.14352    
 333.00 -67.00    -0.99897E-01
 333.00 -66.00    -0.54064E-01
 333.00 -65.00    -0.71387E-02
 333.00 -64.00     0.38920E-01
 333.00 -63.00     0.82629E-01
 333.00 -62.00     0.12173    
 333.00 -61.00     0.15472    
 333.00 -60.00     0.17963    
 333.00 -59.00     0.19528    
 333.00 -58.00     0.20088    
 333.00 -57.00     0.19636    
 333.00 -56.00     0.18234    
 333.00 -55.00     0.16001    
 333.00 -54.00     0.13129    
 333.00 -53.00     0.98435E-01
 333.00 -52.00     0.63905E-01
 333.00 -51.00     0.30179E-01
 333.00 -50.00    -0.51440E-03
 333.00 -49.00    -0.26394E-01
 333.00 -48.00    -0.46277E-01
 333.00 -47.00    -0.59671E-01
 333.00 -46.00    -0.66782E-01
 333.00 -45.00    -0.68444E-01
 333.00 -44.00    -0.65981E-01
 333.00 -43.00    -0.61011E-01
 333.00 -42.00    -0.55229E-01
 333.00 -41.00    -0.50176E-01
 333.00 -40.00    -0.47047E-01
 333.00 -39.00    -0.46546E-01
 333.00 -38.00    -0.48810E-01
 333.00 -37.00    -0.53422E-01
 333.00 -36.00    -0.59500E-01
 333.00 -35.00    -0.65855E-01
 333.00 -34.00    -0.71205E-01
 333.00 -33.00    -0.74408E-01
 333.00 -32.00    -0.74685E-01
 333.00 -31.00    -0.71805E-01
 333.00 -30.00    -0.66197E-01
 333.00 -29.00    -0.58981E-01
 333.00 -28.00    -0.51894E-01
 333.00 -27.00    -0.47132E-01
 333.00 -26.00    -0.47100E-01
 333.00 -25.00    -0.54117E-01
 333.00 -24.00    -0.70102E-01
 333.00 -23.00    -0.96278E-01
 333.00 -22.00    -0.13293    
 333.00 -21.00    -0.17926    
 333.00 -20.00    -0.23335    
 333.00 -19.00    -0.29227    
 333.00 -18.00    -0.35226    
 333.00 -17.00    -0.40910    
 333.00 -16.00    -0.45845    
 333.00 -15.00    -0.49633    
 333.00 -14.00    -0.51951    
 333.00 -13.00    -0.52589    
 333.00 -12.00    -0.51473    
 333.00 -11.00    -0.48679    
 333.00 -10.00    -0.44432    
 333.00  -9.00    -0.39082    
 333.00  -8.00    -0.33080    
 333.00  -7.00    -0.26930    
 333.00  -6.00    -0.21140    
 333.00  -5.00    -0.16174    
 333.00  -4.00    -0.12408    
 333.00  -3.00    -0.10088    
 333.00  -2.00    -0.93112E-01
 333.00  -1.00    -0.10017    
 333.00   0.00    -0.11998    
 333.00   1.00    -0.14925    
 333.00   2.00    -0.18383    
 333.00   3.00    -0.21925    
 333.00   4.00    -0.25117    
 333.00   5.00    -0.27590    
 333.00   6.00    -0.29080    
 333.00   7.00    -0.29458    
 333.00   8.00    -0.28742    
 333.00   9.00    -0.27093    
 333.00  10.00    -0.24795    
 333.00  11.00    -0.22218    
 333.00  12.00    -0.19772    
 333.00  13.00    -0.17859    
 333.00  14.00    -0.16819    
 333.00  15.00    -0.16888    
 333.00  16.00    -0.18164    
 333.00  17.00    -0.20595    
 333.00  18.00    -0.23975    
 333.00  19.00    -0.27968    
 333.00  20.00    -0.32138    
 333.00  21.00    -0.35999    
 333.00  22.00    -0.39068    
 333.00  23.00    -0.40917    
 333.00  24.00    -0.41228    
 333.00  25.00    -0.39823    
 333.00  26.00    -0.36696    
 333.00  27.00    -0.32010    
 333.00  28.00    -0.26090    
 333.00  29.00    -0.19389    
 333.00  30.00    -0.12441    
 333.00  31.00    -0.58116E-01
 333.00  32.00    -0.40409E-03
 333.00  33.00     0.44156E-01
 333.00  34.00     0.72246E-01
 333.00  35.00     0.82114E-01
 333.00  36.00     0.73715E-01
 333.00  37.00     0.48664E-01
 333.00  38.00     0.10017E-01
 333.00  39.00    -0.38100E-01
 333.00  40.00    -0.90968E-01
 333.00  41.00    -0.14380    
 333.00  42.00    -0.19226    
 333.00  43.00    -0.23292    
 333.00  44.00    -0.26356    
 333.00  45.00    -0.28339    
 333.00  46.00    -0.29304    
 333.00  47.00    -0.29439    
 333.00  48.00    -0.29031    
 333.00  49.00    -0.28419    
 333.00  50.00    -0.27954    
 333.00  51.00    -0.27948    
 333.00  52.00    -0.28636    
 333.00  53.00    -0.30143    
 333.00  54.00    -0.32471    
 333.00  55.00    -0.35495    
 333.00  56.00    -0.38981    
 333.00  57.00    -0.42612    
 333.00  58.00    -0.46024    
 333.00  59.00    -0.48863    
 333.00  60.00    -0.50812    
 333.00  61.00    -0.51636    
 333.00  62.00    -0.51204    
 333.00  63.00    -0.49552    
 333.00  64.00    -0.46794    
 333.00  65.00    -0.43180    
 333.00  66.00    -0.39043    
 333.00  67.00    -0.34769    
 333.00  68.00    -0.30724    
 333.00  69.00    -0.27283    
 333.00  70.00    -0.24700    
 333.00  71.00    -0.23105    
 333.00  72.00    -0.22553    
 333.00  73.00    -0.22963    
 333.00  74.00    -0.24143    
 333.00  75.00    -0.25777    
 333.00  76.00    -0.27578    
 333.00  77.00    -0.29171    
 333.00  78.00    -0.30226    
 333.00  79.00    -0.30527    
 333.00  80.00    -0.29918    
 333.00  81.00    -0.28339    
 333.00  82.00    -0.25877    
 333.00  83.00    -0.22668    
 333.00  84.00    -0.18921    
 333.00  85.00    -0.14981    
 333.00  86.00    -0.11060    
 333.00  87.00    -0.73603E-01
 333.00  88.00    -0.40661E-01
 333.00  89.00    -0.13194E-01
 334.00 -89.00     0.14500    
 334.00 -88.00     0.89268E-01
 334.00 -87.00     0.30178E-01
 334.00 -86.00    -0.30146E-01
 334.00 -85.00    -0.88952E-01
 334.00 -84.00    -0.14457    
 334.00 -83.00    -0.19530    
 334.00 -82.00    -0.23882    
 334.00 -81.00    -0.27469    
 334.00 -80.00    -0.30303    
 334.00 -79.00    -0.32269    
 334.00 -78.00    -0.33485    
 334.00 -77.00    -0.33997    
 334.00 -76.00    -0.33868    
 334.00 -75.00    -0.33182    
 334.00 -74.00    -0.31972    
 334.00 -73.00    -0.30299    
 334.00 -72.00    -0.28174    
 334.00 -71.00    -0.25630    
 334.00 -70.00    -0.22691    
 334.00 -69.00    -0.19350    
 334.00 -68.00    -0.15644    
 334.00 -67.00    -0.11640    
 334.00 -66.00    -0.74246E-01
 334.00 -65.00    -0.31055E-01
 334.00 -64.00     0.11250E-01
 334.00 -63.00     0.51178E-01
 334.00 -62.00     0.86478E-01
 334.00 -61.00     0.11575    
 334.00 -60.00     0.13704    
 334.00 -59.00     0.14928    
 334.00 -58.00     0.15186    
 334.00 -57.00     0.14484    
 334.00 -56.00     0.12905    
 334.00 -55.00     0.10593    
 334.00 -54.00     0.77582E-01
 334.00 -53.00     0.46518E-01
 334.00 -52.00     0.15342E-01
 334.00 -51.00    -0.13332E-01
 334.00 -50.00    -0.37220E-01
 334.00 -49.00    -0.54573E-01
 334.00 -48.00    -0.64337E-01
 334.00 -47.00    -0.66245E-01
 334.00 -46.00    -0.60828E-01
 334.00 -45.00    -0.49325E-01
 334.00 -44.00    -0.33530E-01
 334.00 -43.00    -0.15574E-01
 334.00 -42.00     0.23312E-02
 334.00 -41.00     0.18149E-01
 334.00 -40.00     0.30243E-01
 334.00 -39.00     0.37554E-01
 334.00 -38.00     0.39699E-01
 334.00 -37.00     0.36973E-01
 334.00 -36.00     0.30270E-01
 334.00 -35.00     0.20923E-01
 334.00 -34.00     0.10474E-01
 334.00 -33.00     0.42405E-03
 334.00 -32.00    -0.80180E-02
 334.00 -31.00    -0.14155E-01
 334.00 -30.00    -0.17953E-01
 334.00 -29.00    -0.20097E-01
 334.00 -28.00    -0.21960E-01
 334.00 -27.00    -0.25455E-01
 334.00 -26.00    -0.32809E-01
 334.00 -25.00    -0.46274E-01
 334.00 -24.00    -0.67801E-01
 334.00 -23.00    -0.98730E-01
 334.00 -22.00    -0.13953    
 334.00 -21.00    -0.18962    
 334.00 -20.00    -0.24729    
 334.00 -19.00    -0.30978    
 334.00 -18.00    -0.37348    
 334.00 -17.00    -0.43417    
 334.00 -16.00    -0.48747    
 334.00 -15.00    -0.52925    
 334.00 -14.00    -0.55602    
 334.00 -13.00    -0.56536    
 334.00 -12.00    -0.55618    
 334.00 -11.00    -0.52887    
 334.00 -10.00    -0.48536    
 334.00  -9.00    -0.42890    
 334.00  -8.00    -0.36385    
 334.00  -7.00    -0.29525    
 334.00  -6.00    -0.22832    
 334.00  -5.00    -0.16801    
 334.00  -4.00    -0.11853    
 334.00  -3.00    -0.82913E-01
 334.00  -2.00    -0.62796E-01
 334.00  -1.00    -0.58288E-01
 334.00   0.00    -0.68017E-01
 334.00   1.00    -0.89338E-01
 334.00   2.00    -0.11867    
 334.00   3.00    -0.15193    
 334.00   4.00    -0.18502    
 334.00   5.00    -0.21428    
 334.00   6.00    -0.23691    
 334.00   7.00    -0.25127    
 334.00   8.00    -0.25705    
 334.00   9.00    -0.25523    
 334.00  10.00    -0.24792    
 334.00  11.00    -0.23811    
 334.00  12.00    -0.22920    
 334.00  13.00    -0.22455    
 334.00  14.00    -0.22704    
 334.00  15.00    -0.23864    
 334.00  16.00    -0.26012    
 334.00  17.00    -0.29086    
 334.00  18.00    -0.32888    
 334.00  19.00    -0.37102    
 334.00  20.00    -0.41319    
 334.00  21.00    -0.45089    
 334.00  22.00    -0.47963    
 334.00  23.00    -0.49547    
 334.00  24.00    -0.49551    
 334.00  25.00    -0.47818    
 334.00  26.00    -0.44352    
 334.00  27.00    -0.39320    
 334.00  28.00    -0.33039    
 334.00  29.00    -0.25949    
 334.00  30.00    -0.18567    
 334.00  31.00    -0.11441    
 334.00  32.00    -0.50943E-01
 334.00  33.00     0.27281E-03
 334.00  34.00     0.35954E-01
 334.00  35.00     0.54292E-01
 334.00  36.00     0.55090E-01
 334.00  37.00     0.39716E-01
 334.00  38.00     0.10897E-01
 334.00  39.00    -0.27633E-01
 334.00  40.00    -0.71576E-01
 334.00  41.00    -0.11657    
 334.00  42.00    -0.15867    
 334.00  43.00    -0.19477    
 334.00  44.00    -0.22289    
 334.00  45.00    -0.24237    
 334.00  46.00    -0.25386    
 334.00  47.00    -0.25911    
 334.00  48.00    -0.26077    
 334.00  49.00    -0.26192    
 334.00  50.00    -0.26566    
 334.00  51.00    -0.27467    
 334.00  52.00    -0.29083    
 334.00  53.00    -0.31497    
 334.00  54.00    -0.34667    
 334.00  55.00    -0.38437    
 334.00  56.00    -0.42545    
 334.00  57.00    -0.46654    
 334.00  58.00    -0.50394    
 334.00  59.00    -0.53407    
 334.00  60.00    -0.55389    
 334.00  61.00    -0.56116    
 334.00  62.00    -0.55476    
 334.00  63.00    -0.53528    
 334.00  64.00    -0.50407    
 334.00  65.00    -0.46389    
 334.00  66.00    -0.41825    
 334.00  67.00    -0.37123    
 334.00  68.00    -0.32663    
 334.00  69.00    -0.28832    
 334.00  70.00    -0.25898    
 334.00  71.00    -0.23993    
 334.00  72.00    -0.23176    
 334.00  73.00    -0.23368    
 334.00  74.00    -0.24374    
 334.00  75.00    -0.25881    
 334.00  76.00    -0.27589    
 334.00  77.00    -0.29118    
 334.00  78.00    -0.30144    
 334.00  79.00    -0.30433    
 334.00  80.00    -0.29829    
 334.00  81.00    -0.28261    
 334.00  82.00    -0.25823    
 334.00  83.00    -0.22633    
 334.00  84.00    -0.18905    
 334.00  85.00    -0.14982    
 334.00  86.00    -0.11069    
 334.00  87.00    -0.73718E-01
 334.00  88.00    -0.40731E-01
 334.00  89.00    -0.13210E-01
 335.00 -89.00     0.14528    
 335.00 -88.00     0.90053E-01
 335.00 -87.00     0.31638E-01
 335.00 -86.00    -0.27785E-01
 335.00 -85.00    -0.85531E-01
 335.00 -84.00    -0.13990    
 335.00 -83.00    -0.18957    
 335.00 -82.00    -0.23183    
 335.00 -81.00    -0.26671    
 335.00 -80.00    -0.29422    
 335.00 -79.00    -0.31338    
 335.00 -78.00    -0.32543    
 335.00 -77.00    -0.33091    
 335.00 -76.00    -0.33049    
 335.00 -75.00    -0.32494    
 335.00 -74.00    -0.31465    
 335.00 -73.00    -0.30020    
 335.00 -72.00    -0.28163    
 335.00 -71.00    -0.25923    
 335.00 -70.00    -0.23314    
 335.00 -69.00    -0.20325    
 335.00 -68.00    -0.16986    
 335.00 -67.00    -0.13360    
 335.00 -66.00    -0.95300E-01
 335.00 -65.00    -0.56020E-01
 335.00 -64.00    -0.17615E-01
 335.00 -63.00     0.18407E-01
 335.00 -62.00     0.49823E-01
 335.00 -61.00     0.75322E-01
 335.00 -60.00     0.93010E-01
 335.00 -59.00     0.10193    
 335.00 -58.00     0.10160    
 335.00 -57.00     0.92303E-01
 335.00 -56.00     0.75039E-01
 335.00 -55.00     0.51477E-01
 335.00 -54.00     0.23928E-01
 335.00 -53.00    -0.48717E-02
 335.00 -52.00    -0.32179E-01
 335.00 -51.00    -0.55268E-01
 335.00 -50.00    -0.71828E-01
 335.00 -49.00    -0.80172E-01
 335.00 -48.00    -0.79408E-01
 335.00 -47.00    -0.69534E-01
 335.00 -46.00    -0.51436E-01
 335.00 -45.00    -0.26794E-01
 335.00 -44.00     0.21023E-02
 335.00 -43.00     0.32596E-01
 335.00 -42.00     0.61952E-01
 335.00 -41.00     0.87644E-01
 335.00 -40.00     0.10762    
 335.00 -39.00     0.12050    
 335.00 -38.00     0.12572    
 335.00 -37.00     0.12350    
 335.00 -36.00     0.11484    
 335.00 -35.00     0.10128    
 335.00 -34.00     0.84726E-01
 335.00 -33.00     0.67109E-01
 335.00 -32.00     0.50136E-01
 335.00 -31.00     0.35025E-01
 335.00 -30.00     0.22313E-01
 335.00 -29.00     0.11755E-01
 335.00 -28.00     0.23350E-02
 335.00 -27.00    -0.76227E-02
 335.00 -26.00    -0.20235E-01
 335.00 -25.00    -0.37773E-01
 335.00 -24.00    -0.62327E-01
 335.00 -23.00    -0.95477E-01
 335.00 -22.00    -0.13800    
 335.00 -21.00    -0.18964    
 335.00 -20.00    -0.24904    
 335.00 -19.00    -0.31370    
 335.00 -18.00    -0.38020    
 335.00 -17.00    -0.44441    
 335.00 -16.00    -0.50192    
 335.00 -15.00    -0.54840    
 335.00 -14.00    -0.58010    
 335.00 -13.00    -0.59419    
 335.00 -12.00    -0.58914    
 335.00 -11.00    -0.56490    
 335.00 -10.00    -0.52293    
 335.00  -9.00    -0.46614    
 335.00  -8.00    -0.39863    
 335.00  -7.00    -0.32535    
 335.00  -6.00    -0.25159    
 335.00  -5.00    -0.18256    
 335.00  -4.00    -0.12286    
 335.00  -3.00    -0.76113E-01
 335.00  -2.00    -0.44611E-01
 335.00  -1.00    -0.29198E-01
 335.00   0.00    -0.29243E-01
 335.00   1.00    -0.42790E-01
 335.00   2.00    -0.66850E-01
 335.00   3.00    -0.97786E-01
 335.00   4.00    -0.13176    
 335.00   5.00    -0.16517    
 335.00   6.00    -0.19510    
 335.00   7.00    -0.21957    
 335.00   8.00    -0.23775    
 335.00   9.00    -0.25000    
 335.00  10.00    -0.25775    
 335.00  11.00    -0.26324    
 335.00  12.00    -0.26916    
 335.00  13.00    -0.27827    
 335.00  14.00    -0.29292    
 335.00  15.00    -0.31473    
 335.00  16.00    -0.34424    
 335.00  17.00    -0.38080    
 335.00  18.00    -0.42254    
 335.00  19.00    -0.46648    
 335.00  20.00    -0.50886    
 335.00  21.00    -0.54551    
 335.00  22.00    -0.57229    
 335.00  23.00    -0.58561    
 335.00  24.00    -0.58278    
 335.00  25.00    -0.56241    
 335.00  26.00    -0.52461    
 335.00  27.00    -0.47102    
 335.00  28.00    -0.40469    
 335.00  29.00    -0.32984    
 335.00  30.00    -0.25145    
 335.00  31.00    -0.17479    
 335.00  32.00    -0.10492    
 335.00  33.00    -0.46203E-01
 335.00  34.00    -0.19066E-02
 335.00  35.00     0.26064E-01
 335.00  36.00     0.37307E-01
 335.00  37.00     0.32883E-01
 335.00  38.00     0.15125E-01
 335.00  39.00    -0.12684E-01
 335.00  40.00    -0.46724E-01
 335.00  41.00    -0.83103E-01
 335.00  42.00    -0.11830    
 335.00  43.00    -0.14954    
 335.00  44.00    -0.17510    
 335.00  45.00    -0.19443    
 335.00  46.00    -0.20813    
 335.00  47.00    -0.21784    
 335.00  48.00    -0.22591    
 335.00  49.00    -0.23505    
 335.00  50.00    -0.24791    
 335.00  51.00    -0.26670    
 335.00  52.00    -0.29279    
 335.00  53.00    -0.32653    
 335.00  54.00    -0.36709    
 335.00  55.00    -0.41257    
 335.00  56.00    -0.46008    
 335.00  57.00    -0.50608    
 335.00  58.00    -0.54680    
 335.00  59.00    -0.57869    
 335.00  60.00    -0.59882    
 335.00  61.00    -0.60511    
 335.00  62.00    -0.59664    
 335.00  63.00    -0.57423    
 335.00  64.00    -0.53948    
 335.00  65.00    -0.49535    
 335.00  66.00    -0.44558    
 335.00  67.00    -0.39444    
 335.00  68.00    -0.34585    
 335.00  69.00    -0.30380    
 335.00  70.00    -0.27108    
 335.00  71.00    -0.24903    
 335.00  72.00    -0.23827    
 335.00  73.00    -0.23804    
 335.00  74.00    -0.24637    
 335.00  75.00    -0.26012    
 335.00  76.00    -0.27620    
 335.00  77.00    -0.29078    
 335.00  78.00    -0.30068    
 335.00  79.00    -0.30339    
 335.00  80.00    -0.29734    
 335.00  81.00    -0.28172    
 335.00  82.00    -0.25756    
 335.00  83.00    -0.22584    
 335.00  84.00    -0.18878    
 335.00  85.00    -0.14974    
 335.00  86.00    -0.11069    
 335.00  87.00    -0.73787E-01
 335.00  88.00    -0.40776E-01
 335.00  89.00    -0.13218E-01
 336.00 -89.00     0.14557    
 336.00 -88.00     0.90878E-01
 336.00 -87.00     0.33175E-01
 336.00 -86.00    -0.25309E-01
 336.00 -85.00    -0.81951E-01
 336.00 -84.00    -0.13502    
 336.00 -83.00    -0.18355    
 336.00 -82.00    -0.22452    
 336.00 -81.00    -0.25835    
 336.00 -80.00    -0.28497    
 336.00 -79.00    -0.30361    
 336.00 -78.00    -0.31553    
 336.00 -77.00    -0.32137    
 336.00 -76.00    -0.32187    
 336.00 -75.00    -0.31765    
 336.00 -74.00    -0.30923    
 336.00 -73.00    -0.29716    
 336.00 -72.00    -0.28138    
 336.00 -71.00    -0.26216    
 336.00 -70.00    -0.23951    
 336.00 -69.00    -0.21328    
 336.00 -68.00    -0.18372    
 336.00 -67.00    -0.15139    
 336.00 -66.00    -0.11708    
 336.00 -65.00    -0.81832E-01
 336.00 -64.00    -0.47418E-01
 336.00 -63.00    -0.15362E-01
 336.00 -62.00     0.12163E-01
 336.00 -61.00     0.33928E-01
 336.00 -60.00     0.48108E-01
 336.00 -59.00     0.53847E-01
 336.00 -58.00     0.50853E-01
 336.00 -57.00     0.39551E-01
 336.00 -56.00     0.21149E-01
 336.00 -55.00    -0.24573E-02
 336.00 -54.00    -0.28772E-01
 336.00 -53.00    -0.54855E-01
 336.00 -52.00    -0.77836E-01
 336.00 -51.00    -0.94905E-01
 336.00 -50.00    -0.10375    
 336.00 -49.00    -0.10279    
 336.00 -48.00    -0.91322E-01
 336.00 -47.00    -0.69637E-01
 336.00 -46.00    -0.39012E-01
 336.00 -45.00    -0.15878E-02
 336.00 -44.00     0.39833E-01
 336.00 -43.00     0.82059E-01
 336.00 -42.00     0.12184    
 336.00 -41.00     0.15618    
 336.00 -40.00     0.18265    
 336.00 -39.00     0.19959    
 336.00 -38.00     0.20632    
 336.00 -37.00     0.20307    
 336.00 -36.00     0.19102    
 336.00 -35.00     0.17202    
 336.00 -34.00     0.14839    
 336.00 -33.00     0.12260    
 336.00 -32.00     0.96911E-01
 336.00 -31.00     0.73118E-01
 336.00 -30.00     0.52285E-01
 336.00 -29.00     0.34616E-01
 336.00 -28.00     0.19427E-01
 336.00 -27.00     0.52315E-02
 336.00 -26.00    -0.10050E-01
 336.00 -25.00    -0.28805E-01
 336.00 -24.00    -0.53380E-01
 336.00 -23.00    -0.85721E-01
 336.00 -22.00    -0.12704    
 336.00 -21.00    -0.17756    
 336.00 -20.00    -0.23636    
 336.00 -19.00    -0.30133    
 336.00 -18.00    -0.36932    
 336.00 -17.00    -0.43636    
 336.00 -16.00    -0.49799    
 336.00 -15.00    -0.54974    
 336.00 -14.00    -0.58750    
 336.00 -13.00    -0.60804    
 336.00 -12.00    -0.60929    
 336.00 -11.00    -0.59062    
 336.00 -10.00    -0.55296    
 336.00  -9.00    -0.49876    
 336.00  -8.00    -0.43175    
 336.00  -7.00    -0.35669    
 336.00  -6.00    -0.27886    
 336.00  -5.00    -0.20364    
 336.00  -4.00    -0.13599    
 336.00  -3.00    -0.80047E-01
 336.00  -2.00    -0.38769E-01
 336.00  -1.00    -0.13716E-01
 336.00   0.00    -0.50011E-02
 336.00   1.00    -0.11374E-01
 336.00   2.00    -0.30453E-01
 336.00   3.00    -0.59070E-01
 336.00   4.00    -0.93671E-01
 336.00   5.00    -0.13076    
 336.00   6.00    -0.16727    
 336.00   7.00    -0.20093    
 336.00   8.00    -0.23043    
 336.00   9.00    -0.25554    
 336.00  10.00    -0.27700    
 336.00  11.00    -0.29636    
 336.00  12.00    -0.31564    
 336.00  13.00    -0.33701    
 336.00  14.00    -0.36236    
 336.00  15.00    -0.39298    
 336.00  16.00    -0.42926    
 336.00  17.00    -0.47053    
 336.00  18.00    -0.51506    
 336.00  19.00    -0.56012    
 336.00  20.00    -0.60226    
 336.00  21.00    -0.63766    
 336.00  22.00    -0.66251    
 336.00  23.00    -0.67351    
 336.00  24.00    -0.66817    
 336.00  25.00    -0.64524    
 336.00  26.00    -0.60482    
 336.00  27.00    -0.54845    
 336.00  28.00    -0.47902    
 336.00  29.00    -0.40052    
 336.00  30.00    -0.31768    
 336.00  31.00    -0.23555    
 336.00  32.00    -0.15900    
 336.00  33.00    -0.92310E-01
 336.00  34.00    -0.38754E-01
 336.00  35.00    -0.37161E-03
 336.00  36.00     0.22180E-01
 336.00  37.00     0.29597E-01
 336.00  38.00     0.23763E-01
 336.00  39.00     0.74515E-02
 336.00  40.00    -0.16047E-01
 336.00  41.00    -0.43343E-01
 336.00  42.00    -0.71364E-01
 336.00  43.00    -0.97694E-01
 336.00  44.00    -0.12083    
 336.00  45.00    -0.14032    
 336.00  46.00    -0.15672    
 336.00  47.00    -0.17147    
 336.00  48.00    -0.18658    
 336.00  49.00    -0.20437    
 336.00  50.00    -0.22700    
 336.00  51.00    -0.25613    
 336.00  52.00    -0.29263    
 336.00  53.00    -0.33636    
 336.00  54.00    -0.38605    
 336.00  55.00    -0.43947    
 336.00  56.00    -0.49348    
 336.00  57.00    -0.54439    
 336.00  58.00    -0.58840    
 336.00  59.00    -0.62198    
 336.00  60.00    -0.64237    
 336.00  61.00    -0.64765    
 336.00  62.00    -0.63714    
 336.00  63.00    -0.61186    
 336.00  64.00    -0.57368    
 336.00  65.00    -0.52577    
 336.00  66.00    -0.47208    
 336.00  67.00    -0.41702    
 336.00  68.00    -0.36468    
 336.00  69.00    -0.31910    
 336.00  70.00    -0.28319    
 336.00  71.00    -0.25829    
 336.00  72.00    -0.24504    
 336.00  73.00    -0.24272    
 336.00  74.00    -0.24931    
 336.00  75.00    -0.26172    
 336.00  76.00    -0.27674    
 336.00  77.00    -0.29053    
 336.00  78.00    -0.29999    
 336.00  79.00    -0.30245    
 336.00  80.00    -0.29633    
 336.00  81.00    -0.28073    
 336.00  82.00    -0.25677    
 336.00  83.00    -0.22523    
 336.00  84.00    -0.18839    
 336.00  85.00    -0.14955    
 336.00  86.00    -0.11062    
 336.00  87.00    -0.73810E-01
 336.00  88.00    -0.40796E-01
 336.00  89.00    -0.13217E-01
 337.00 -89.00     0.14588    
 337.00 -88.00     0.91744E-01
 337.00 -87.00     0.34786E-01
 337.00 -86.00    -0.22722E-01
 337.00 -85.00    -0.78217E-01
 337.00 -84.00    -0.12994    
 337.00 -83.00    -0.17726    
 337.00 -82.00    -0.21689    
 337.00 -81.00    -0.24963    
 337.00 -80.00    -0.27530    
 337.00 -79.00    -0.29340    
 337.00 -78.00    -0.30518    
 337.00 -77.00    -0.31138    
 337.00 -76.00    -0.31280    
 337.00 -75.00    -0.30996    
 337.00 -74.00    -0.30348    
 337.00 -73.00    -0.29387    
 337.00 -72.00    -0.28098    
 337.00 -71.00    -0.26505    
 337.00 -70.00    -0.24597    
 337.00 -69.00    -0.22353    
 337.00 -68.00    -0.19793    
 337.00 -67.00    -0.16964    
 337.00 -66.00    -0.13942    
 337.00 -65.00    -0.10827    
 337.00 -64.00    -0.77882E-01
 337.00 -63.00    -0.49784E-01
 337.00 -62.00    -0.26082E-01
 337.00 -61.00    -0.79376E-02
 337.00 -60.00     0.29088E-02
 337.00 -59.00     0.57074E-02
 337.00 -58.00     0.33312E-03
 337.00 -57.00    -0.12626E-01
 337.00 -56.00    -0.31780E-01
 337.00 -55.00    -0.55012E-01
 337.00 -54.00    -0.79662E-01
 337.00 -53.00    -0.10261    
 337.00 -52.00    -0.12088    
 337.00 -51.00    -0.13161    
 337.00 -50.00    -0.13252    
 337.00 -49.00    -0.12215    
 337.00 -48.00    -0.10003    
 337.00 -47.00    -0.66780E-01
 337.00 -46.00    -0.24076E-01
 337.00 -45.00     0.25457E-01
 337.00 -44.00     0.78498E-01
 337.00 -43.00     0.13133    
 337.00 -42.00     0.18020    
 337.00 -41.00     0.22167    
 337.00 -40.00     0.25298    
 337.00 -39.00     0.27228    
 337.00 -38.00     0.27879    
 337.00 -37.00     0.27288    
 337.00 -36.00     0.25596    
 337.00 -35.00     0.23029    
 337.00 -34.00     0.19870    
 337.00 -33.00     0.16425    
 337.00 -32.00     0.12983    
 337.00 -31.00     0.97857E-01
 337.00 -30.00     0.69938E-01
 337.00 -29.00     0.46726E-01
 337.00 -28.00     0.27840E-01
 337.00 -27.00     0.11929E-01
 337.00 -26.00    -0.31285E-02
 337.00 -25.00    -0.19938E-01
 337.00 -24.00    -0.41218E-01
 337.00 -23.00    -0.69408E-01
 337.00 -22.00    -0.10629    
 337.00 -21.00    -0.15269    
 337.00 -20.00    -0.20825    
 337.00 -19.00    -0.27135    
 337.00 -18.00    -0.33921    
 337.00 -17.00    -0.40805    
 337.00 -16.00    -0.47344    
 337.00 -15.00    -0.53072    
 337.00 -14.00    -0.57547    
 337.00 -13.00    -0.60394    
 337.00 -12.00    -0.61348    
 337.00 -11.00    -0.60281    
 337.00 -10.00    -0.57223    
 337.00  -9.00    -0.52361    
 337.00  -8.00    -0.46022    
 337.00  -7.00    -0.38652    
 337.00  -6.00    -0.30767    
 337.00  -5.00    -0.22916    
 337.00  -4.00    -0.15623    
 337.00  -3.00    -0.93497E-01
 337.00  -2.00    -0.44507E-01
 337.00  -1.00    -0.11519E-01
 337.00   0.00     0.46320E-02
 337.00   1.00     0.45034E-02
 337.00   2.00    -0.10133E-01
 337.00   3.00    -0.36576E-01
 337.00   4.00    -0.71575E-01
 337.00   5.00    -0.11173    
 337.00   6.00    -0.15389    
 337.00   7.00    -0.19550    
 337.00   8.00    -0.23480    
 337.00   9.00    -0.27101    
 337.00  10.00    -0.30423    
 337.00  11.00    -0.33537    
 337.00  12.00    -0.36585    
 337.00  13.00    -0.39731    
 337.00  14.00    -0.43126    
 337.00  15.00    -0.46872    
 337.00  16.00    -0.50999    
 337.00  17.00    -0.55445    
 337.00  18.00    -0.60054    
 337.00  19.00    -0.64580    
 337.00  20.00    -0.68711    
 337.00  21.00    -0.72100    
 337.00  22.00    -0.74398    
 337.00  23.00    -0.75298    
 337.00  24.00    -0.74569    
 337.00  25.00    -0.72089    
 337.00  26.00    -0.67863    
 337.00  27.00    -0.62030    
 337.00  28.00    -0.54853    
 337.00  29.00    -0.46704    
 337.00  30.00    -0.38026    
 337.00  31.00    -0.29299    
 337.00  32.00    -0.20990    
 337.00  33.00    -0.13518    
 337.00  34.00    -0.72141E-01
 337.00  35.00    -0.22999E-01
 337.00  36.00     0.11295E-01
 337.00  37.00     0.31023E-01
 337.00  38.00     0.37562E-01
 337.00  39.00     0.33132E-01
 337.00  40.00     0.20453E-01
 337.00  41.00     0.23767E-02
 337.00  42.00    -0.18485E-01
 337.00  43.00    -0.40075E-01
 337.00  44.00    -0.61112E-01
 337.00  45.00    -0.81206E-01
 337.00  46.00    -0.10083    
 337.00  47.00    -0.12118    
 337.00  48.00    -0.14394    
 337.00  49.00    -0.17094    
 337.00  50.00    -0.20382    
 337.00  51.00    -0.24371    
 337.00  52.00    -0.29092    
 337.00  53.00    -0.34482    
 337.00  54.00    -0.40371    
 337.00  55.00    -0.46505    
 337.00  56.00    -0.52547    
 337.00  57.00    -0.58116    
 337.00  58.00    -0.62831    
 337.00  59.00    -0.66345    
 337.00  60.00    -0.68400    
 337.00  61.00    -0.68823    
 337.00  62.00    -0.67570    
 337.00  63.00    -0.64765    
 337.00  64.00    -0.60621    
 337.00  65.00    -0.55474    
 337.00  66.00    -0.49739    
 337.00  67.00    -0.43871    
 337.00  68.00    -0.38289    
 337.00  69.00    -0.33405    
 337.00  70.00    -0.29518    
 337.00  71.00    -0.26762    
 337.00  72.00    -0.25202    
 337.00  73.00    -0.24769    
 337.00  74.00    -0.25258    
 337.00  75.00    -0.26363    
 337.00  76.00    -0.27754    
 337.00  77.00    -0.29047    
 337.00  78.00    -0.29941    
 337.00  79.00    -0.30154    
 337.00  80.00    -0.29528    
 337.00  81.00    -0.27966    
 337.00  82.00    -0.25586    
 337.00  83.00    -0.22450    
 337.00  84.00    -0.18790    
 337.00  85.00    -0.14927    
 337.00  86.00    -0.11048    
 337.00  87.00    -0.73789E-01
 337.00  88.00    -0.40789E-01
 337.00  89.00    -0.13208E-01
 338.00 -89.00     0.14621    
 338.00 -88.00     0.92649E-01
 338.00 -87.00     0.36470E-01
 338.00 -86.00    -0.20026E-01
 338.00 -85.00    -0.74331E-01
 338.00 -84.00    -0.12468    
 338.00 -83.00    -0.17068    
 338.00 -82.00    -0.20896    
 338.00 -81.00    -0.24056    
 338.00 -80.00    -0.26523    
 338.00 -79.00    -0.28277    
 338.00 -78.00    -0.29439    
 338.00 -77.00    -0.30095    
 338.00 -76.00    -0.30331    
 338.00 -75.00    -0.30188    
 338.00 -74.00    -0.29741    
 338.00 -73.00    -0.29032    
 338.00 -72.00    -0.28042    
 338.00 -71.00    -0.26789    
 338.00 -70.00    -0.25248    
 338.00 -69.00    -0.23394    
 338.00 -68.00    -0.21239    
 338.00 -67.00    -0.18822    
 338.00 -66.00    -0.16213    
 338.00 -65.00    -0.13511    
 338.00 -64.00    -0.10871    
 338.00 -63.00    -0.84502E-01
 338.00 -62.00    -0.64483E-01
 338.00 -61.00    -0.49774E-01
 338.00 -60.00    -0.42011E-01
 338.00 -59.00    -0.41846E-01
 338.00 -58.00    -0.49245E-01
 338.00 -57.00    -0.63466E-01
 338.00 -56.00    -0.82952E-01
 338.00 -55.00    -0.10538    
 338.00 -54.00    -0.12796    
 338.00 -53.00    -0.14741    
 338.00 -52.00    -0.16067    
 338.00 -51.00    -0.16486    
 338.00 -50.00    -0.15778    
 338.00 -49.00    -0.13810    
 338.00 -48.00    -0.10562    
 338.00 -47.00    -0.61292E-01
 338.00 -46.00    -0.72351E-02
 338.00 -45.00     0.53448E-01
 338.00 -44.00     0.11692    
 338.00 -43.00     0.17895    
 338.00 -42.00     0.23531    
 338.00 -41.00     0.28219    
 338.00 -40.00     0.31652    
 338.00 -39.00     0.33631    
 338.00 -38.00     0.34081    
 338.00 -37.00     0.33056    
 338.00 -36.00     0.30730    
 338.00 -35.00     0.27379    
 338.00 -34.00     0.23345    
 338.00 -33.00     0.18999    
 338.00 -32.00     0.14698    
 338.00 -31.00     0.10749    
 338.00 -30.00     0.73687E-01
 338.00 -29.00     0.46664E-01
 338.00 -28.00     0.26307E-01
 338.00 -27.00     0.11342E-01
 338.00 -26.00    -0.47459E-03
 338.00 -25.00    -0.12063E-01
 338.00 -24.00    -0.26628E-01
 338.00 -23.00    -0.47222E-01
 338.00 -22.00    -0.76328E-01
 338.00 -21.00    -0.11549    
 338.00 -20.00    -0.16502    
 338.00 -19.00    -0.22392    
 338.00 -18.00    -0.28983    
 338.00 -17.00    -0.35923    
 338.00 -16.00    -0.42775    
 338.00 -15.00    -0.49058    
 338.00 -14.00    -0.54294    
 338.00 -13.00    -0.58055    
 338.00 -12.00    -0.60011    
 338.00 -11.00    -0.59964    
 338.00 -10.00    -0.57869    
 338.00  -9.00    -0.53848    
 338.00  -8.00    -0.48173    
 338.00  -7.00    -0.41249    
 338.00  -6.00    -0.33574    
 338.00  -5.00    -0.25696    
 338.00  -4.00    -0.18160    
 338.00  -3.00    -0.11468    
 338.00  -2.00    -0.60285E-01
 338.00  -1.00    -0.21320E-01
 338.00   0.00     0.70243E-03
 338.00   1.00     0.56745E-02
 338.00   2.00    -0.52152E-02
 338.00   3.00    -0.29727E-01
 338.00   4.00    -0.64903E-01
 338.00   5.00    -0.10746    
 338.00   6.00    -0.15417    
 338.00   7.00    -0.20221    
 338.00   8.00    -0.24945    
 338.00   9.00    -0.29457    
 338.00  10.00    -0.33714    
 338.00  11.00    -0.37748    
 338.00  12.00    -0.41649    
 338.00  13.00    -0.45538    
 338.00  14.00    -0.49534    
 338.00  15.00    -0.53724    
 338.00  16.00    -0.58133    
 338.00  17.00    -0.62713    
 338.00  18.00    -0.67328    
 338.00  19.00    -0.71766    
 338.00  20.00    -0.75747    
 338.00  21.00    -0.78958    
 338.00  22.00    -0.81079    
 338.00  23.00    -0.81824    
 338.00  24.00    -0.80971    
 338.00  25.00    -0.78397    
 338.00  26.00    -0.74093    
 338.00  27.00    -0.68173    
 338.00  28.00    -0.60871    
 338.00  29.00    -0.52523    
 338.00  30.00    -0.43540    
 338.00  31.00    -0.34370    
 338.00  32.00    -0.25462    
 338.00  33.00    -0.17224    
 338.00  34.00    -0.99950E-01
 338.00  35.00    -0.40145E-01
 338.00  36.00     0.58792E-02
 338.00  37.00     0.37945E-01
 338.00  38.00     0.56884E-01
 338.00  39.00     0.64317E-01
 338.00  40.00     0.62365E-01
 338.00  41.00     0.53322E-01
 338.00  42.00     0.39328E-01
 338.00  43.00     0.22088E-01
 338.00  44.00     0.26788E-02
 338.00  45.00    -0.18551E-01
 338.00  46.00    -0.41958E-01
 338.00  47.00    -0.68472E-01
 338.00  48.00    -0.99375E-01
 338.00  49.00    -0.13601    
 338.00  50.00    -0.17947    
 338.00  51.00    -0.23031    
 338.00  52.00    -0.28831    
 338.00  53.00    -0.35234    
 338.00  54.00    -0.42030    
 338.00  55.00    -0.48934    
 338.00  56.00    -0.55591    
 338.00  57.00    -0.61610    
 338.00  58.00    -0.66613    
 338.00  59.00    -0.70262    
 338.00  60.00    -0.72317    
 338.00  61.00    -0.72630    
 338.00  62.00    -0.71179    
 338.00  63.00    -0.68110    
 338.00  64.00    -0.63660    
 338.00  65.00    -0.58185    
 338.00  66.00    -0.52117    
 338.00  67.00    -0.45921    
 338.00  68.00    -0.40028    
 338.00  69.00    -0.34850    
 338.00  70.00    -0.30694    
 338.00  71.00    -0.27696    
 338.00  72.00    -0.25918    
 338.00  73.00    -0.25294    
 338.00  74.00    -0.25618    
 338.00  75.00    -0.26586    
 338.00  76.00    -0.27862    
 338.00  77.00    -0.29062    
 338.00  78.00    -0.29894    
 338.00  79.00    -0.30067    
 338.00  80.00    -0.29421    
 338.00  81.00    -0.27852    
 338.00  82.00    -0.25484    
 338.00  83.00    -0.22365    
 338.00  84.00    -0.18730    
 338.00  85.00    -0.14888    
 338.00  86.00    -0.11026    
 338.00  87.00    -0.73722E-01
 338.00  88.00    -0.40757E-01
 338.00  89.00    -0.13190E-01
 339.00 -89.00     0.14656    
 339.00 -88.00     0.93594E-01
 339.00 -87.00     0.38226E-01
 339.00 -86.00    -0.17225E-01
 339.00 -85.00    -0.70299E-01
 339.00 -84.00    -0.11923    
 339.00 -83.00    -0.16384    
 339.00 -82.00    -0.20074    
 339.00 -81.00    -0.23114    
 339.00 -80.00    -0.25476    
 339.00 -79.00    -0.27174    
 339.00 -78.00    -0.28318    
 339.00 -77.00    -0.29008    
 339.00 -76.00    -0.29340    
 339.00 -75.00    -0.29343    
 339.00 -74.00    -0.29101    
 339.00 -73.00    -0.28652    
 339.00 -72.00    -0.27969    
 339.00 -71.00    -0.27064    
 339.00 -70.00    -0.25898    
 339.00 -69.00    -0.24442    
 339.00 -68.00    -0.22699    
 339.00 -67.00    -0.20698    
 339.00 -66.00    -0.18503    
 339.00 -65.00    -0.16210    
 339.00 -64.00    -0.13962    
 339.00 -63.00    -0.11915    
 339.00 -62.00    -0.10261    
 339.00 -61.00    -0.91082E-01
 339.00 -60.00    -0.86086E-01
 339.00 -59.00    -0.88185E-01
 339.00 -58.00    -0.97201E-01
 339.00 -57.00    -0.11225    
 339.00 -56.00    -0.13163    
 339.00 -55.00    -0.15284    
 339.00 -54.00    -0.17295    
 339.00 -53.00    -0.18860    
 339.00 -52.00    -0.19666    
 339.00 -51.00    -0.19426    
 339.00 -50.00    -0.17927    
 339.00 -49.00    -0.15058    
 339.00 -48.00    -0.10825    
 339.00 -47.00    -0.53590E-01
 339.00 -46.00     0.10845E-01
 339.00 -45.00     0.81469E-01
 339.00 -44.00     0.15394    
 339.00 -43.00     0.22355    
 339.00 -42.00     0.28564    
 339.00 -41.00     0.33603    
 339.00 -40.00     0.37145    
 339.00 -39.00     0.38983    
 339.00 -38.00     0.39051    
 339.00 -37.00     0.37428    
 339.00 -36.00     0.34331    
 339.00 -35.00     0.30090    
 339.00 -34.00     0.25114    
 339.00 -33.00     0.19845    
 339.00 -32.00     0.14713    
 339.00 -31.00     0.10090    
 339.00 -30.00     0.62513E-01
 339.00 -29.00     0.33468E-01
 339.00 -28.00     0.13883E-01
 339.00 -27.00     0.25043E-02
 339.00 -26.00    -0.31143E-02
 339.00 -25.00    -0.62992E-02
 339.00 -24.00    -0.10841E-01
 339.00 -23.00    -0.20519E-01
 339.00 -22.00    -0.38624E-01
 339.00 -21.00    -0.67521E-01
 339.00 -20.00    -0.10832    
 339.00 -19.00    -0.16069    
 339.00 -18.00    -0.22278    
 339.00 -17.00    -0.29140    
 339.00 -16.00    -0.36226    
 339.00 -15.00    -0.43042    
 339.00 -14.00    -0.49071    
 339.00 -13.00    -0.53833    
 339.00 -12.00    -0.56928    
 339.00 -11.00    -0.58080    
 339.00 -10.00    -0.57167    
 339.00  -9.00    -0.54235    
 339.00  -8.00    -0.49494    
 339.00  -7.00    -0.43301    
 339.00  -6.00    -0.36124    
 339.00  -5.00    -0.28505    
 339.00  -4.00    -0.21003    
 339.00  -3.00    -0.14150    
 339.00  -2.00    -0.84034E-01
 339.00  -1.00    -0.41108E-01
 339.00   0.00    -0.14862E-01
 339.00   1.00    -0.60168E-02
 339.00   2.00    -0.13931E-01
 339.00   3.00    -0.36795E-01
 339.00   4.00    -0.71935E-01
 339.00   5.00    -0.11617    
 339.00   6.00    -0.16622    
 339.00   7.00    -0.21904    
 339.00   8.00    -0.27214    
 339.00   9.00    -0.32375    
 339.00  10.00    -0.37295    
 339.00  11.00    -0.41958    
 339.00  12.00    -0.46413    
 339.00  13.00    -0.50745    
 339.00  14.00    -0.55053    
 339.00  15.00    -0.59416    
 339.00  16.00    -0.63867    
 339.00  17.00    -0.68375    
 339.00  18.00    -0.72835    
 339.00  19.00    -0.77066    
 339.00  20.00    -0.80826    
 339.00  21.00    -0.83833    
 339.00  22.00    -0.85795    
 339.00  23.00    -0.86439    
 339.00  24.00    -0.85549    
 339.00  25.00    -0.82992    
 339.00  26.00    -0.78735    
 339.00  27.00    -0.72864    
 339.00  28.00    -0.65573    
 339.00  29.00    -0.57158    
 339.00  30.00    -0.47990    
 339.00  31.00    -0.38486    
 339.00  32.00    -0.29070    
 339.00  33.00    -0.20146    
 339.00  34.00    -0.12055    
 339.00  35.00    -0.50608E-01
 339.00  36.00     0.66989E-02
 339.00  37.00     0.50702E-01
 339.00  38.00     0.81649E-01
 339.00  39.00     0.10054    
 339.00  40.00     0.10886    
 339.00  41.00     0.10836    
 339.00  42.00     0.10068    
 339.00  43.00     0.87210E-01
 339.00  44.00     0.68825E-01
 339.00  45.00     0.45865E-01
 339.00  46.00     0.18122E-01
 339.00  47.00    -0.15035E-01
 339.00  48.00    -0.54460E-01
 339.00  49.00    -0.10098    
 339.00  50.00    -0.15514    
 339.00  51.00    -0.21691    
 339.00  52.00    -0.28555    
 339.00  53.00    -0.35943    
 339.00  54.00    -0.43610    
 339.00  55.00    -0.51242    
 339.00  56.00    -0.58468    
 339.00  57.00    -0.64893    
 339.00  58.00    -0.70146    
 339.00  59.00    -0.73901    
 339.00  60.00    -0.75939    
 339.00  61.00    -0.76132    
 339.00  62.00    -0.74488    
 339.00  63.00    -0.71170    
 339.00  64.00    -0.66440    
 339.00  65.00    -0.60671    
 339.00  66.00    -0.54309    
 339.00  67.00    -0.47826    
 339.00  68.00    -0.41661    
 339.00  69.00    -0.36228    
 339.00  70.00    -0.31836    
 339.00  71.00    -0.28622    
 339.00  72.00    -0.26647    
 339.00  73.00    -0.25845    
 339.00  74.00    -0.26009    
 339.00  75.00    -0.26841    
 339.00  76.00    -0.27998    
 339.00  77.00    -0.29100    
 339.00  78.00    -0.29862    
 339.00  79.00    -0.29986    
 339.00  80.00    -0.29312    
 339.00  81.00    -0.27732    
 339.00  82.00    -0.25373    
 339.00  83.00    -0.22269    
 339.00  84.00    -0.18661    
 339.00  85.00    -0.14840    
 339.00  86.00    -0.10996    
 339.00  87.00    -0.73610E-01
 339.00  88.00    -0.40699E-01
 339.00  89.00    -0.13163E-01
 340.00 -89.00     0.14692    
 340.00 -88.00     0.94576E-01
 340.00 -87.00     0.40051E-01
 340.00 -86.00    -0.14321E-01
 340.00 -85.00    -0.66126E-01
 340.00 -84.00    -0.11362    
 340.00 -83.00    -0.15675    
 340.00 -82.00    -0.19224    
 340.00 -81.00    -0.22138    
 340.00 -80.00    -0.24393    
 340.00 -79.00    -0.26032    
 340.00 -78.00    -0.27157    
 340.00 -77.00    -0.27881    
 340.00 -76.00    -0.28308    
 340.00 -75.00    -0.28462    
 340.00 -74.00    -0.28431    
 340.00 -73.00    -0.28246    
 340.00 -72.00    -0.27877    
 340.00 -71.00    -0.27327    
 340.00 -70.00    -0.26543    
 340.00 -69.00    -0.25490    
 340.00 -68.00    -0.24162    
 340.00 -67.00    -0.22577    
 340.00 -66.00    -0.20793    
 340.00 -65.00    -0.18900    
 340.00 -64.00    -0.17029    
 340.00 -63.00    -0.15337    
 340.00 -62.00    -0.14005    
 340.00 -61.00    -0.13138    
 340.00 -60.00    -0.12877    
 340.00 -59.00    -0.13272    
 340.00 -58.00    -0.14290    
 340.00 -57.00    -0.15832    
 340.00 -56.00    -0.17714    
 340.00 -55.00    -0.19673    
 340.00 -54.00    -0.21405    
 340.00 -53.00    -0.22568    
 340.00 -52.00    -0.22844    
 340.00 -51.00    -0.21951    
