  64.00  38.00     0.67371    
  64.00  39.00     0.60359    
  64.00  40.00     0.55224    
  64.00  41.00     0.51230    
  64.00  42.00     0.46632    
  64.00  43.00     0.39327    
  64.00  44.00     0.27655    
  64.00  45.00     0.11154    
  64.00  46.00    -0.91177E-01
  64.00  47.00    -0.30760    
  64.00  48.00    -0.50693    
  64.00  49.00    -0.66071    
  64.00  50.00    -0.75089    
  64.00  51.00    -0.77448    
  64.00  52.00    -0.74248    
  64.00  53.00    -0.67391    
  64.00  54.00    -0.58795    
  64.00  55.00    -0.49664    
  64.00  56.00    -0.40133    
  64.00  57.00    -0.29470    
  64.00  58.00    -0.16671    
  64.00  59.00    -0.12060E-01
  64.00  60.00     0.16350    
  64.00  61.00     0.34217    
  64.00  62.00     0.49741    
  64.00  63.00     0.60261    
  64.00  64.00     0.63975    
  64.00  65.00     0.60655    
  64.00  66.00     0.51861    
  64.00  67.00     0.40523    
  64.00  68.00     0.30123    
  64.00  69.00     0.23699    
  64.00  70.00     0.22930    
  64.00  71.00     0.27929    
  64.00  72.00     0.37143    
  64.00  73.00     0.48119    
  64.00  74.00     0.58261    
  64.00  75.00     0.65634    
  64.00  76.00     0.69129    
  64.00  77.00     0.68864    
  64.00  78.00     0.65758    
  64.00  79.00     0.60966    
  64.00  80.00     0.55626    
  64.00  81.00     0.50547    
  64.00  82.00     0.46055    
  64.00  83.00     0.42498    
  64.00  84.00     0.40051    
  64.00  85.00     0.38990    
  64.00  86.00     0.39948    
  64.00  87.00     0.43408    
  64.00  88.00     0.49404    
  64.00  89.00     0.58139    
  65.00 -89.00     0.89946    
  65.00 -88.00     0.91834    
  65.00 -87.00     0.92893    
  65.00 -86.00     0.93465    
  65.00 -85.00     0.93840    
  65.00 -84.00     0.94133    
  65.00 -83.00     0.94270    
  65.00 -82.00     0.94585    
  65.00 -81.00     0.94783    
  65.00 -80.00     0.94766    
  65.00 -79.00     0.94372    
  65.00 -78.00     0.93369    
  65.00 -77.00     0.91495    
  65.00 -76.00     0.88465    
  65.00 -75.00     0.84122    
  65.00 -74.00     0.78405    
  65.00 -73.00     0.71757    
  65.00 -72.00     0.64797    
  65.00 -71.00     0.58315    
  65.00 -70.00     0.53046    
  65.00 -69.00     0.49495    
  65.00 -68.00     0.47653    
  65.00 -67.00     0.47009    
  65.00 -66.00     0.46637    
  65.00 -65.00     0.45477    
  65.00 -64.00     0.42579    
  65.00 -63.00     0.37425    
  65.00 -62.00     0.29975    
  65.00 -61.00     0.20651    
  65.00 -60.00     0.10140    
  65.00 -59.00    -0.80633E-02
  65.00 -58.00    -0.11599    
  65.00 -57.00    -0.21820    
  65.00 -56.00    -0.31223    
  65.00 -55.00    -0.39649    
  65.00 -54.00    -0.46920    
  65.00 -53.00    -0.52861    
  65.00 -52.00    -0.57414    
  65.00 -51.00    -0.60733    
  65.00 -50.00    -0.63290    
  65.00 -49.00    -0.65835    
  65.00 -48.00    -0.69230    
  65.00 -47.00    -0.74132    
  65.00 -46.00    -0.80744    
  65.00 -45.00    -0.88614    
  65.00 -44.00    -0.96663    
  65.00 -43.00     -1.0343    
  65.00 -42.00     -1.0743    
  65.00 -41.00     -1.0763    
  65.00 -40.00     -1.0363    
  65.00 -39.00    -0.95837    
  65.00 -38.00    -0.85295    
  65.00 -37.00    -0.73390    
  65.00 -36.00    -0.61522    
  65.00 -35.00    -0.50825    
  65.00 -34.00    -0.42019    
  65.00 -33.00    -0.35382    
  65.00 -32.00    -0.30792    
  65.00 -31.00    -0.27806    
  65.00 -30.00    -0.25706    
  65.00 -29.00    -0.23557    
  65.00 -28.00    -0.20300    
  65.00 -27.00    -0.14935    
  65.00 -26.00    -0.67806E-01
  65.00 -25.00     0.42380E-01
  65.00 -24.00     0.17397    
  65.00 -23.00     0.31186    
  65.00 -22.00     0.43598    
  65.00 -21.00     0.52642    
  65.00 -20.00     0.56950    
  65.00 -19.00     0.56249    
  65.00 -18.00     0.51523    
  65.00 -17.00     0.44758    
  65.00 -16.00     0.38336    
  65.00 -15.00     0.34266    
  65.00 -14.00     0.33549    
  65.00 -13.00     0.35898    
  65.00 -12.00     0.39937    
  65.00 -11.00     0.43813    
  65.00 -10.00     0.45968    
  65.00  -9.00     0.45784    
  65.00  -8.00     0.43830    
  65.00  -7.00     0.41606    
  65.00  -6.00     0.40898    
  65.00  -5.00     0.42984    
  65.00  -4.00     0.48043    
  65.00  -3.00     0.54982    
  65.00  -2.00     0.61801    
  65.00  -1.00     0.66327    
  65.00   0.00     0.67049    
  65.00   1.00     0.63720    
  65.00   2.00     0.57478    
  65.00   3.00     0.50448    
  65.00   4.00     0.44959    
  65.00   5.00     0.42687    
  65.00   6.00     0.44053    
  65.00   7.00     0.48075    
  65.00   8.00     0.52744    
  65.00   9.00     0.55748    
  65.00  10.00     0.55283    
  65.00  11.00     0.50641    
  65.00  12.00     0.42400    
  65.00  13.00     0.32153    
  65.00  14.00     0.21943    
  65.00  15.00     0.13585    
  65.00  16.00     0.81639E-01
  65.00  17.00     0.58138E-01
  65.00  18.00     0.58481E-01
  65.00  19.00     0.71283E-01
  65.00  20.00     0.85231E-01
  65.00  21.00     0.92941E-01
  65.00  22.00     0.93007E-01
  65.00  23.00     0.89962E-01
  65.00  24.00     0.92515E-01
  65.00  25.00     0.11084    
  65.00  26.00     0.15367    
  65.00  27.00     0.22582    
  65.00  28.00     0.32650    
  65.00  29.00     0.44868    
  65.00  30.00     0.57964    
  65.00  31.00     0.70299    
  65.00  32.00     0.80177    
  65.00  33.00     0.86240    
  65.00  34.00     0.87826    
  65.00  35.00     0.85186    
  65.00  36.00     0.79455    
  65.00  37.00     0.72326    
  65.00  38.00     0.65512    
  65.00  39.00     0.60145    
  65.00  40.00     0.56323    
  65.00  41.00     0.53006    
  65.00  42.00     0.48322    
  65.00  43.00     0.40251    
  65.00  44.00     0.27385    
  65.00  45.00     0.96248E-01
  65.00  46.00    -0.11605    
  65.00  47.00    -0.33620    
  65.00  48.00    -0.53197    
  65.00  49.00    -0.67517    
  65.00  50.00    -0.74938    
  65.00  51.00    -0.75411    
  65.00  52.00    -0.70306    
  65.00  53.00    -0.61752    
  65.00  54.00    -0.51809    
  65.00  55.00    -0.41731    
  65.00  56.00    -0.31627    
  65.00  57.00    -0.20691    
  65.00  58.00    -0.78402E-01
  65.00  59.00     0.75109E-01
  65.00  60.00     0.24804    
  65.00  61.00     0.42250    
  65.00  62.00     0.57179    
  65.00  63.00     0.66924    
  65.00  64.00     0.69707    
  65.00  65.00     0.65366    
  65.00  66.00     0.55548    
  65.00  67.00     0.43287    
  65.00  68.00     0.32142    
  65.00  69.00     0.25178    
  65.00  70.00     0.24063    
  65.00  71.00     0.28834    
  65.00  72.00     0.37860    
  65.00  73.00     0.48608    
  65.00  74.00     0.58428    
  65.00  75.00     0.65382    
  65.00  76.00     0.68413    
  65.00  77.00     0.67715    
  65.00  78.00     0.64286    
  65.00  79.00     0.59351    
  65.00  80.00     0.54066    
  65.00  81.00     0.49216    
  65.00  82.00     0.45061    
  65.00  83.00     0.41877    
  65.00  84.00     0.39749    
  65.00  85.00     0.38897    
  65.00  86.00     0.39956    
  65.00  87.00     0.43417    
  65.00  88.00     0.49391    
  65.00  89.00     0.58106    
  66.00 -89.00     0.89989    
  66.00 -88.00     0.91928    
  66.00 -87.00     0.93040    
  66.00 -86.00     0.93617    
  66.00 -85.00     0.93951    
  66.00 -84.00     0.94147    
  66.00 -83.00     0.94143    
  66.00 -82.00     0.94364    
  66.00 -81.00     0.94564    
  66.00 -80.00     0.94692    
  66.00 -79.00     0.94586    
  66.00 -78.00     0.93994    
  66.00 -77.00     0.92556    
  66.00 -76.00     0.89878    
  66.00 -75.00     0.85713    
  66.00 -74.00     0.79946    
  66.00 -73.00     0.73019    
  66.00 -72.00     0.65617    
  66.00 -71.00     0.58619    
  66.00 -70.00     0.52866    
  66.00 -69.00     0.48906    
  66.00 -68.00     0.46747    
  66.00 -67.00     0.45822    
  66.00 -66.00     0.45120    
  66.00 -65.00     0.43498    
  66.00 -64.00     0.39932    
  66.00 -63.00     0.33905    
  66.00 -62.00     0.25434    
  66.00 -61.00     0.15037    
  66.00 -60.00     0.35479E-01
  66.00 -59.00    -0.81492E-01
  66.00 -58.00    -0.19346    
  66.00 -57.00    -0.29549    
  66.00 -56.00    -0.38482    
  66.00 -55.00    -0.46011    
  66.00 -54.00    -0.52037    
  66.00 -53.00    -0.56515    
  66.00 -52.00    -0.59559    
  66.00 -51.00    -0.61521    
  66.00 -50.00    -0.63064    
  66.00 -49.00    -0.65099    
  66.00 -48.00    -0.68578    
  66.00 -47.00    -0.74165    
  66.00 -46.00    -0.81967    
  66.00 -45.00    -0.91360    
  66.00 -44.00     -1.0104    
  66.00 -43.00     -1.0929    
  66.00 -42.00     -1.1445    
  66.00 -41.00     -1.1527    
  66.00 -40.00     -1.1128    
  66.00 -39.00     -1.0285    
  66.00 -38.00    -0.91025    
  66.00 -37.00    -0.77270    
  66.00 -36.00    -0.63098    
  66.00 -35.00    -0.49814    
  66.00 -34.00    -0.38355    
  66.00 -33.00    -0.29245    
  66.00 -32.00    -0.22620    
  66.00 -31.00    -0.18251    
  66.00 -30.00    -0.15551    
  66.00 -29.00    -0.13603    
  66.00 -28.00    -0.11242    
  66.00 -27.00    -0.72618E-01
  66.00 -26.00    -0.73028E-02
  66.00 -25.00     0.86666E-01
  66.00 -24.00     0.20376    
  66.00 -23.00     0.32966    
  66.00 -22.00     0.44420    
  66.00 -21.00     0.52688    
  66.00 -20.00     0.56335    
  66.00 -19.00     0.55055    
  66.00 -18.00     0.49845    
  66.00 -17.00     0.42730    
  66.00 -16.00     0.36122    
  66.00 -15.00     0.32024    
  66.00 -14.00     0.31363    
  66.00 -13.00     0.33744    
  66.00 -12.00     0.37686    
  66.00 -11.00     0.41297    
  66.00 -10.00     0.43085    
  66.00  -9.00     0.42613    
  66.00  -8.00     0.40694    
  66.00  -7.00     0.39059    
  66.00  -6.00     0.39611    
  66.00  -5.00     0.43564    
  66.00  -4.00     0.50828    
  66.00  -3.00     0.59903    
  66.00  -2.00     0.68337    
  66.00  -1.00     0.73606    
  66.00   0.00     0.74053    
  66.00   1.00     0.69543    
  66.00   2.00     0.61560    
  66.00   3.00     0.52704    
  66.00   4.00     0.45771    
  66.00   5.00     0.42766    
  66.00   6.00     0.44213    
  66.00   7.00     0.49006    
  66.00   8.00     0.54843    
  66.00   9.00     0.59065    
  66.00  10.00     0.59572    
  66.00  11.00     0.55501    
  66.00  12.00     0.47422    
  66.00  13.00     0.37037    
  66.00  14.00     0.26524    
  66.00  15.00     0.17798    
  66.00  16.00     0.11941    
  66.00  17.00     0.90048E-01
  66.00  18.00     0.81797E-01
  66.00  19.00     0.82458E-01
  66.00  20.00     0.80976E-01
  66.00  21.00     0.71572E-01
  66.00  22.00     0.55521E-01
  66.00  23.00     0.40348E-01
  66.00  24.00     0.37088E-01
  66.00  25.00     0.56713E-01
  66.00  26.00     0.10684    
  66.00  27.00     0.18947    
  66.00  28.00     0.30014    
  66.00  29.00     0.42837    
  66.00  30.00     0.55938    
  66.00  31.00     0.67673    
  66.00  32.00     0.76549    
  66.00  33.00     0.81556    
  66.00  34.00     0.82418    
  66.00  35.00     0.79688    
  66.00  36.00     0.74624    
  66.00  37.00     0.68823    
  66.00  38.00     0.63712    
  66.00  39.00     0.60021    
  66.00  40.00     0.57455    
  66.00  41.00     0.54695    
  66.00  42.00     0.49782    
  66.00  43.00     0.40820    
  66.00  44.00     0.26698    
  66.00  45.00     0.77037E-01
  66.00  46.00    -0.14364    
  66.00  47.00    -0.36553    
  66.00  48.00    -0.55533    
  66.00  49.00    -0.68554    
  66.00  50.00    -0.74186    
  66.00  51.00    -0.72664    
  66.00  52.00    -0.65638    
  66.00  53.00    -0.55457    
  66.00  54.00    -0.44297    
  66.00  55.00    -0.33422    
  66.00  56.00    -0.22878    
  66.00  57.00    -0.11754    
  66.00  58.00     0.11256E-01
  66.00  59.00     0.16403    
  66.00  60.00     0.33523    
  66.00  61.00     0.50666    
  66.00  62.00     0.65128    
  66.00  63.00     0.74211    
  66.00  64.00     0.76153    
  66.00  65.00     0.70848    
  66.00  66.00     0.60028    
  66.00  67.00     0.46825    
  66.00  68.00     0.34879    
  66.00  69.00     0.27287    
  66.00  70.00     0.25713    
  66.00  71.00     0.30128    
  66.00  72.00     0.38841    
  66.00  73.00     0.49253    
  66.00  74.00     0.58677    
  66.00  75.00     0.65171    
  66.00  76.00     0.67730    
  66.00  77.00     0.66620    
  66.00  78.00     0.62901    
  66.00  79.00     0.57856    
  66.00  80.00     0.52648    
  66.00  81.00     0.48029    
  66.00  82.00     0.44200    
  66.00  83.00     0.41364    
  66.00  84.00     0.39522    
  66.00  85.00     0.38855    
  66.00  86.00     0.39993    
  66.00  87.00     0.43441    
  66.00  88.00     0.49385    
  66.00  89.00     0.58075    
  67.00 -89.00     0.90031    
  67.00 -88.00     0.92021    
  67.00 -87.00     0.93186    
  67.00 -86.00     0.93772    
  67.00 -85.00     0.94068    
  67.00 -84.00     0.94169    
  67.00 -83.00     0.94036    
  67.00 -82.00     0.94162    
  67.00 -81.00     0.94366    
  67.00 -80.00     0.94638    
  67.00 -79.00     0.94814    
  67.00 -78.00     0.94627    
  67.00 -77.00     0.93617    
  67.00 -76.00     0.91287    
  67.00 -75.00     0.87303    
  67.00 -74.00     0.81506    
  67.00 -73.00     0.74332    
  67.00 -72.00     0.66535    
  67.00 -71.00     0.59074    
  67.00 -70.00     0.52889    
  67.00 -69.00     0.48561    
  67.00 -68.00     0.46107    
  67.00 -67.00     0.44897    
  67.00 -66.00     0.43839    
  67.00 -65.00     0.41719    
  67.00 -64.00     0.37454    
  67.00 -63.00     0.30540    
  67.00 -62.00     0.21069    
  67.00 -61.00     0.96582E-01
  67.00 -60.00    -0.27199E-01
  67.00 -59.00    -0.15060    
  67.00 -58.00    -0.26560    
  67.00 -57.00    -0.36679    
  67.00 -56.00    -0.45138    
  67.00 -55.00    -0.51847    
  67.00 -54.00    -0.56793    
  67.00 -53.00    -0.60050    
  67.00 -52.00    -0.61877    
  67.00 -51.00    -0.62782    
  67.00 -50.00    -0.63568    
  67.00 -49.00    -0.65255    
  67.00 -48.00    -0.68840    
  67.00 -47.00    -0.74961    
  67.00 -46.00    -0.83630    
  67.00 -45.00    -0.94074    
  67.00 -44.00     -1.0482    
  67.00 -43.00     -1.1399    
  67.00 -42.00     -1.1979    
  67.00 -41.00     -1.2092    
  67.00 -40.00     -1.1687    
  67.00 -39.00     -1.0800    
  67.00 -38.00    -0.95383    
  67.00 -37.00    -0.80480    
  67.00 -36.00    -0.64824    
  67.00 -35.00    -0.49756    
  67.00 -34.00    -0.36293    
  67.00 -33.00    -0.25097    
  67.00 -32.00    -0.16492    
  67.00 -31.00    -0.10463    
  67.00 -30.00    -0.66222E-01
  67.00 -29.00    -0.41866E-01
  67.00 -28.00    -0.20322E-01
  67.00 -27.00     0.11108E-01
  67.00 -26.00     0.63245E-01
  67.00 -25.00     0.14118    
  67.00 -24.00     0.24132    
  67.00 -23.00     0.35093    
  67.00 -22.00     0.45084    
  67.00 -21.00     0.52105    
  67.00 -20.00     0.54735    
  67.00 -19.00     0.52676    
  67.00 -18.00     0.46932    
  67.00 -17.00     0.39538    
  67.00 -16.00     0.32900    
  67.00 -15.00     0.28984    
  67.00 -14.00     0.28648    
  67.00 -13.00     0.31400    
  67.00 -12.00     0.35671    
  67.00 -11.00     0.39520    
  67.00 -10.00     0.41480    
  67.00  -9.00     0.41211    
  67.00  -8.00     0.39671    
  67.00  -7.00     0.38730    
  67.00  -6.00     0.40363    
  67.00  -5.00     0.45742    
  67.00  -4.00     0.54610    
  67.00  -3.00     0.65200    
  67.00  -2.00     0.74770    
  67.00  -1.00     0.80556    
  67.00   0.00     0.80790    
  67.00   1.00     0.75387    
  67.00   2.00     0.66031    
  67.00   3.00     0.55616    
  67.00   4.00     0.47246    
  67.00   5.00     0.43171    
  67.00   6.00     0.44041    
  67.00   7.00     0.48752    
  67.00   8.00     0.54904    
  67.00   9.00     0.59693    
  67.00  10.00     0.60883    
  67.00  11.00     0.57511    
  67.00  12.00     0.50093    
  67.00  13.00     0.40299    
  67.00  14.00     0.30264    
  67.00  15.00     0.21826    
  67.00  16.00     0.15958    
  67.00  17.00     0.12593    
  67.00  18.00     0.10850    
  67.00  19.00     0.95285E-01
  67.00  20.00     0.76597E-01
  67.00  21.00     0.49113E-01
  67.00  22.00     0.17132E-01
  67.00  23.00    -0.90122E-02
  67.00  24.00    -0.16521E-01
  67.00  25.00     0.57190E-02
  67.00  26.00     0.63709E-01
  67.00  27.00     0.15650    
  67.00  28.00     0.27613    
  67.00  29.00     0.40917    
  67.00  30.00     0.53928    
  67.00  31.00     0.65031    
  67.00  32.00     0.72948    
  67.00  33.00     0.76995    
  67.00  34.00     0.77239    
  67.00  35.00     0.74489    
  67.00  36.00     0.70084    
  67.00  37.00     0.65512    
  67.00  38.00     0.61919    
  67.00  39.00     0.59670    
  67.00  40.00     0.58124    
  67.00  41.00     0.55734    
  67.00  42.00     0.50497    
  67.00  43.00     0.40666    
  67.00  44.00     0.25436    
  67.00  45.00     0.54608E-01
  67.00  46.00    -0.17121    
  67.00  47.00    -0.39139    
  67.00  48.00    -0.57210    
  67.00  49.00    -0.68697    
  67.00  50.00    -0.72417    
  67.00  51.00    -0.68903    
  67.00  52.00    -0.60075    
  67.00  53.00    -0.48478    
  67.00  54.00    -0.36357    
  67.00  55.00    -0.24942    
  67.00  56.00    -0.14171    
  67.00  57.00    -0.30021E-01
  67.00  58.00     0.98478E-01
  67.00  59.00     0.25075    
  67.00  60.00     0.42112    
  67.00  61.00     0.59086    
  67.00  62.00     0.73234    
  67.00  63.00     0.81809    
  67.00  64.00     0.83044    
  67.00  65.00     0.76878    
  67.00  66.00     0.65121    
  67.00  67.00     0.51000    
  67.00  68.00     0.38230    
  67.00  69.00     0.29948    
  67.00  70.00     0.27823    
  67.00  71.00     0.31768    
  67.00  72.00     0.40055    
  67.00  73.00     0.50035    
  67.00  74.00     0.58991    
  67.00  75.00     0.64990    
  67.00  76.00     0.67077    
  67.00  77.00     0.65579    
  67.00  78.00     0.61606    
  67.00  79.00     0.56486    
  67.00  80.00     0.51376    
  67.00  81.00     0.46992    
  67.00  82.00     0.43475    
  67.00  83.00     0.40959    
  67.00  84.00     0.39372    
  67.00  85.00     0.38865    
  67.00  86.00     0.40060    
  67.00  87.00     0.43480    
  67.00  88.00     0.49387    
  67.00  89.00     0.58048    
  68.00 -89.00     0.90071    
  68.00 -88.00     0.92113    
  68.00 -87.00     0.93332    
  68.00 -86.00     0.93929    
  68.00 -85.00     0.94190    
  68.00 -84.00     0.94201    
  68.00 -83.00     0.93950    
  68.00 -82.00     0.93981    
  68.00 -81.00     0.94190    
  68.00 -80.00     0.94602    
  68.00 -79.00     0.95056    
  68.00 -78.00     0.95265    
  68.00 -77.00     0.94676    
  68.00 -76.00     0.92691    
  68.00 -75.00     0.88895    
  68.00 -74.00     0.83089    
  68.00 -73.00     0.75706    
  68.00 -72.00     0.67566    
  68.00 -71.00     0.59697    
  68.00 -70.00     0.53133    
  68.00 -69.00     0.48476    
  68.00 -68.00     0.45744    
  68.00 -67.00     0.44243    
  68.00 -66.00     0.42806    
  68.00 -65.00     0.40155    
  68.00 -64.00     0.35172    
  68.00 -63.00     0.27376    
  68.00 -62.00     0.16949    
  68.00 -61.00     0.46118E-01
  68.00 -60.00    -0.85327E-01
  68.00 -59.00    -0.21380    
  68.00 -58.00    -0.33060    
  68.00 -57.00    -0.43019    
  68.00 -56.00    -0.51006    
  68.00 -55.00    -0.56993    
  68.00 -54.00    -0.61057    
  68.00 -53.00    -0.63382    
  68.00 -52.00    -0.64330    
  68.00 -51.00    -0.64516    
  68.00 -50.00    -0.64822    
  68.00 -49.00    -0.66315    
  68.00 -48.00    -0.69986    
  68.00 -47.00    -0.76426    
  68.00 -46.00    -0.85549    
  68.00 -45.00    -0.96469    
  68.00 -44.00     -1.0760    
  68.00 -43.00     -1.1701    
  68.00 -42.00     -1.2288    
  68.00 -41.00     -1.2394    
  68.00 -40.00     -1.1972    
  68.00 -39.00     -1.1065    
  68.00 -38.00    -0.97782    
  68.00 -37.00    -0.82548    
  68.00 -36.00    -0.66390    
  68.00 -35.00    -0.50548    
  68.00 -34.00    -0.35971    
  68.00 -33.00    -0.23330    
  68.00 -32.00    -0.13049    
  68.00 -31.00    -0.53008E-01
  68.00 -30.00     0.61185E-03
  68.00 -29.00     0.35847E-01
  68.00 -28.00     0.62177E-01
  68.00 -27.00     0.91538E-01
  68.00 -26.00     0.13512    
  68.00 -25.00     0.19935    
  68.00 -24.00     0.28258    
  68.00 -23.00     0.37415    
  68.00 -22.00     0.45674    
  68.00 -21.00     0.51171    
  68.00 -20.00     0.52572    
  68.00 -19.00     0.49620    
  68.00 -18.00     0.43330    
  68.00 -17.00     0.35730    
  68.00 -16.00     0.29204    
  68.00 -15.00     0.25675    
  68.00 -14.00     0.25943    
  68.00 -13.00     0.29433    
  68.00 -12.00     0.34493    
  68.00 -11.00     0.39105    
  68.00 -10.00     0.41755    
  68.00  -9.00     0.42092    
  68.00  -8.00     0.41104    
  68.00  -7.00     0.40708    
  68.00  -6.00     0.42923    
  68.00  -5.00     0.48937    
  68.00  -4.00     0.58463    
  68.00  -3.00     0.69661    
  68.00  -2.00     0.79684    
  68.00  -1.00     0.85661    
  68.00   0.00     0.85744    
  68.00   1.00     0.79823    
  68.00   2.00     0.69613    
  68.00   3.00     0.58097    
  68.00   4.00     0.48508    
  68.00   5.00     0.43240    
  68.00   6.00     0.43083    
  68.00   7.00     0.47049    
  68.00   8.00     0.52824    
  68.00   9.00     0.57648    
  68.00  10.00     0.59283    
  68.00  11.00     0.56712    
  68.00  12.00     0.50343    
  68.00  13.00     0.41689    
  68.00  14.00     0.32695    
  68.00  15.00     0.24997    
  68.00  16.00     0.19399    
  68.00  17.00     0.15735    
  68.00  18.00     0.13125    
  68.00  19.00     0.10489    
  68.00  20.00     0.70749E-01
  68.00  21.00     0.28281E-01
  68.00  22.00    -0.15480E-01
  68.00  23.00    -0.48155E-01
  68.00  24.00    -0.56121E-01
  68.00  25.00    -0.28897E-01
  68.00  26.00     0.37569E-01
  68.00  27.00     0.13955    
  68.00  28.00     0.26625    
  68.00  29.00     0.40204    
  68.00  30.00     0.52971    
  68.00  31.00     0.63377    
  68.00  32.00     0.70342    
  68.00  33.00     0.73460    
  68.00  34.00     0.73075    
  68.00  35.00     0.70187    
  68.00  36.00     0.66192    
  68.00  37.00     0.62473    
  68.00  38.00     0.59947    
  68.00  39.00     0.58692    
  68.00  40.00     0.57804    
  68.00  41.00     0.55580    
  68.00  42.00     0.50014    
  68.00  43.00     0.39508    
  68.00  44.00     0.23532    
  68.00  45.00     0.30485E-01
  68.00  46.00    -0.19544    
  68.00  47.00    -0.40926    
  68.00  48.00    -0.57728    
  68.00  49.00    -0.67474    
  68.00  50.00    -0.69244    
  68.00  51.00    -0.63858    
  68.00  52.00    -0.53482    
  68.00  53.00    -0.40804    
  68.00  54.00    -0.28090    
  68.00  55.00    -0.16482    
  68.00  56.00    -0.57691E-01
  68.00  57.00     0.52512E-01
  68.00  58.00     0.17978    
  68.00  59.00     0.33156    
  68.00  60.00     0.50191    
  68.00  61.00     0.67135    
  68.00  62.00     0.81138    
  68.00  63.00     0.89384    
  68.00  64.00     0.90083    
  68.00  65.00     0.83204    
  68.00  66.00     0.70620    
  68.00  67.00     0.55644    
  68.00  68.00     0.42065    
  68.00  69.00     0.33063    
  68.00  70.00     0.30317    
  68.00  71.00     0.33702    
  68.00  72.00     0.41463    
  68.00  73.00     0.50924    
  68.00  74.00     0.59354    
  68.00  75.00     0.64833    
  68.00  76.00     0.66450    
  68.00  77.00     0.64594    
  68.00  78.00     0.60406    
  68.00  79.00     0.55244    
  68.00  80.00     0.50254    
  68.00  81.00     0.46108    
  68.00  82.00     0.42888    
  68.00  83.00     0.40663    
  68.00  84.00     0.39297    
  68.00  85.00     0.38926    
  68.00  86.00     0.40156    
  68.00  87.00     0.43534    
  68.00  88.00     0.49395    
  68.00  89.00     0.58023    
  69.00 -89.00     0.90111    
  69.00 -88.00     0.92204    
  69.00 -87.00     0.93477    
  69.00 -86.00     0.94089    
  69.00 -85.00     0.94319    
  69.00 -84.00     0.94242    
  69.00 -83.00     0.93887    
  69.00 -82.00     0.93822    
  69.00 -81.00     0.94035    
  69.00 -80.00     0.94586    
  69.00 -79.00     0.95313    
  69.00 -78.00     0.95908    
  69.00 -77.00     0.95732    
  69.00 -76.00     0.94091    
  69.00 -75.00     0.90492    
  69.00 -74.00     0.84702    
  69.00 -73.00     0.77150    
  69.00 -72.00     0.68717    
  69.00 -71.00     0.60497    
  69.00 -70.00     0.53604    
  69.00 -69.00     0.48655    
  69.00 -68.00     0.45660    
  69.00 -67.00     0.43861    
  69.00 -66.00     0.42024    
  69.00 -65.00     0.38813    
  69.00 -64.00     0.33102    
  69.00 -63.00     0.24446    
  69.00 -62.00     0.13129    
  69.00 -61.00    -0.23263E-03
  69.00 -60.00    -0.13786    
  69.00 -59.00    -0.26978    
  69.00 -58.00    -0.38696    
  69.00 -57.00    -0.48405    
  69.00 -56.00    -0.55917    
  69.00 -55.00    -0.61283    
  69.00 -54.00    -0.64677    
  69.00 -53.00    -0.66367    
  69.00 -52.00    -0.66785    
  69.00 -51.00    -0.66591    
  69.00 -50.00    -0.66683    
  69.00 -49.00    -0.68115    
  69.00 -48.00    -0.71824    
  69.00 -47.00    -0.78329    
  69.00 -46.00    -0.87459    
  69.00 -45.00    -0.98248    
  69.00 -44.00     -1.0908    
  69.00 -43.00     -1.1804    
  69.00 -42.00     -1.2340    
  69.00 -41.00     -1.2399    
  69.00 -40.00     -1.1951    
  69.00 -39.00     -1.1043    
  69.00 -38.00    -0.97855    
  69.00 -37.00    -0.83102    
  69.00 -36.00    -0.67441    
  69.00 -35.00    -0.51891    
  69.00 -34.00    -0.37197    
  69.00 -33.00    -0.23909    
  69.00 -32.00    -0.12459    
  69.00 -31.00    -0.31646E-01
  69.00 -30.00     0.38686E-01
  69.00 -29.00     0.88842E-01
  69.00 -28.00     0.12549    
  69.00 -27.00     0.15865    
  69.00 -26.00     0.19887    
  69.00 -25.00     0.25327    
  69.00 -24.00     0.32197    
  69.00 -23.00     0.39662    
  69.00 -22.00     0.46223    
  69.00 -21.00     0.50207    
  69.00 -20.00     0.50404    
  69.00 -19.00     0.46616    
  69.00 -18.00     0.39870    
  69.00 -17.00     0.32175    
  69.00 -16.00     0.25887    
  69.00 -15.00     0.22902    
  69.00 -14.00     0.23983    
  69.00 -13.00     0.28506    
  69.00 -12.00     0.34739    
  69.00 -11.00     0.40554    
  69.00 -10.00     0.44312    
  69.00  -9.00     0.45537    
  69.00  -8.00     0.45119    
  69.00  -7.00     0.44937    
  69.00  -6.00     0.47035    
  69.00  -5.00     0.52688    
  69.00  -4.00     0.61736    
  69.00  -3.00     0.72472    
  69.00  -2.00     0.82143    
  69.00  -1.00     0.87914    
  69.00   0.00     0.87897    
  69.00   1.00     0.81875    
  69.00   2.00     0.71431    
  69.00   3.00     0.59431    
  69.00   4.00     0.49053    
  69.00   5.00     0.42726    
  69.00   6.00     0.41378    
  69.00   7.00     0.44226    
  69.00   8.00     0.49189    
  69.00   9.00     0.53699    
  69.00  10.00     0.55620    
  69.00  11.00     0.53906    
  69.00  12.00     0.48811    
  69.00  13.00     0.41592    
  69.00  14.00     0.33901    
  69.00  15.00     0.27113    
  69.00  16.00     0.21862    
  69.00  17.00     0.17946    
  69.00  18.00     0.14585    
  69.00  19.00     0.10901    
  69.00  20.00     0.64052E-01
  69.00  21.00     0.12938E-01
  69.00  22.00    -0.35450E-01
  69.00  23.00    -0.67947E-01
  69.00  24.00    -0.71324E-01
  69.00  25.00    -0.36521E-01
  69.00  26.00     0.38442E-01
  69.00  27.00     0.14762    
  69.00  28.00     0.27833    
  69.00  29.00     0.41390    
  69.00  30.00     0.53700    
  69.00  31.00     0.63307    
  69.00  32.00     0.69299    
  69.00  33.00     0.71472    
  69.00  34.00     0.70355    
  69.00  35.00     0.67074    
  69.00  36.00     0.63056    
  69.00  37.00     0.59617    
  69.00  38.00     0.57529    
  69.00  39.00     0.56694    
  69.00  40.00     0.56055    
  69.00  41.00     0.53830    
  69.00  42.00     0.48047    
  69.00  43.00     0.37232    
  69.00  44.00     0.21068    
  69.00  45.00     0.72554E-02
  69.00  46.00    -0.21237    
  69.00  47.00    -0.41447    
  69.00  48.00    -0.56620    
  69.00  49.00    -0.64471    
  69.00  50.00    -0.64345    
  69.00  51.00    -0.57324    
  69.00  52.00    -0.45767    
  69.00  53.00    -0.32450    
  69.00  54.00    -0.19597    
  69.00  55.00    -0.82090E-01
  69.00  56.00     0.21109E-01
  69.00  57.00     0.12748    
  69.00  58.00     0.25227    
  69.00  59.00     0.40331    
  69.00  60.00     0.57426    
  69.00  61.00     0.74469    
  69.00  62.00     0.88499    
  69.00  63.00     0.96611    
  69.00  64.00     0.96971    
  69.00  65.00     0.89559    
  69.00  66.00     0.76299    
  69.00  67.00     0.60573    
  69.00  68.00     0.46240    
  69.00  69.00     0.36518    
  69.00  70.00     0.33110    
  69.00  71.00     0.35865    
  69.00  72.00     0.43019    
  69.00  73.00     0.51889    
  69.00  74.00     0.59744    
  69.00  75.00     0.64685    
  69.00  76.00     0.65846    
  69.00  77.00     0.63663    
  69.00  78.00     0.59301    
  69.00  79.00     0.54134    
  69.00  80.00     0.49285    
  69.00  81.00     0.45378    
  69.00  82.00     0.42439    
  69.00  83.00     0.40477    
  69.00  84.00     0.39299    
  69.00  85.00     0.39039    
  69.00  86.00     0.40281    
  69.00  87.00     0.43604    
  69.00  88.00     0.49411    
  69.00  89.00     0.58001    
  70.00 -89.00     0.90150    
  70.00 -88.00     0.92292    
  70.00 -87.00     0.93620    
  70.00 -86.00     0.94251    
  70.00 -85.00     0.94454    
  70.00 -84.00     0.94293    
  70.00 -83.00     0.93845    
  70.00 -82.00     0.93684    
  70.00 -81.00     0.93902    
  70.00 -80.00     0.94587    
  70.00 -79.00     0.95582    
  70.00 -78.00     0.96556    
  70.00 -77.00     0.96785    
  70.00 -76.00     0.95487    
  70.00 -75.00     0.92097    
  70.00 -74.00     0.86349    
  70.00 -73.00     0.78668    
  70.00 -72.00     0.69992    
  70.00 -71.00     0.61477    
  70.00 -70.00     0.54302    
  70.00 -69.00     0.49096    
  70.00 -68.00     0.45848    
  70.00 -67.00     0.43742    
  70.00 -66.00     0.41484    
  70.00 -65.00     0.37690    
  70.00 -64.00     0.31253    
  70.00 -63.00     0.21770    
  70.00 -62.00     0.96426E-01
  70.00 -61.00    -0.41943E-01
  70.00 -60.00    -0.18410    
  70.00 -59.00    -0.31769    
  70.00 -58.00    -0.43366    
  70.00 -57.00    -0.52722    
  70.00 -56.00    -0.59743    
  70.00 -55.00    -0.64578    
  70.00 -54.00    -0.67496    
  70.00 -53.00    -0.68833    
  70.00 -52.00    -0.69043    
  70.00 -51.00    -0.68777    
  70.00 -50.00    -0.68889    
  70.00 -49.00    -0.70361    
  70.00 -48.00    -0.74039    
  70.00 -47.00    -0.80355    
  70.00 -46.00    -0.89063    
  70.00 -45.00    -0.99167    
  70.00 -44.00     -1.0908    
  70.00 -43.00     -1.1699    
  70.00 -42.00     -1.2132    
  70.00 -41.00     -1.2113    
  70.00 -40.00     -1.1627    
  70.00 -39.00     -1.0738    
  70.00 -38.00    -0.95536    
  70.00 -37.00    -0.81956    
  70.00 -36.00    -0.67663    
  70.00 -35.00    -0.53364    
  70.00 -34.00    -0.39501    
  70.00 -33.00    -0.26397    
  70.00 -32.00    -0.14405    
  70.00 -31.00    -0.39331E-01
  70.00 -30.00     0.46716E-01
  70.00 -29.00     0.11322    
  70.00 -28.00     0.16344    
  70.00 -27.00     0.20474    
  70.00 -26.00     0.24632    
  70.00 -25.00     0.29548    
  70.00 -24.00     0.35384    
  70.00 -23.00     0.41533    
  70.00 -22.00     0.46743    
  70.00 -21.00     0.49541    
  70.00 -20.00     0.48845    
  70.00 -19.00     0.44501    
  70.00 -18.00     0.37524    
  70.00 -17.00     0.29889    
  70.00 -16.00     0.23929    
  70.00 -15.00     0.21535    
  70.00 -14.00     0.23483    
  70.00 -13.00     0.29144    
  70.00 -12.00     0.36733    
  70.00 -11.00     0.44001    
  70.00 -10.00     0.49115    
  70.00  -9.00     0.51369    
  70.00  -8.00     0.51446    
  70.00  -7.00     0.51094    
  70.00  -6.00     0.52362    
  70.00  -5.00     0.56676    
  70.00  -4.00     0.64147    
  70.00  -3.00     0.73387    
  70.00  -2.00     0.81934    
  70.00  -1.00     0.87118    
  70.00   0.00     0.87054    
  70.00   1.00     0.81359    
  70.00   2.00     0.71340    
  70.00   3.00     0.59561    
  70.00   4.00     0.48977    
  70.00   5.00     0.41952    
  70.00   6.00     0.39524    
  70.00   7.00     0.41177    
  70.00   8.00     0.45158    
  70.00   9.00     0.49196    
  70.00  10.00     0.51318    
  70.00  11.00     0.50462    
  70.00  12.00     0.46680    
  70.00  13.00     0.40914    
  70.00  14.00     0.34476    
  70.00  15.00     0.28477    
  70.00  16.00     0.23437    
  70.00  17.00     0.19210    
  70.00  18.00     0.15215    
  70.00  19.00     0.10849    
  70.00  20.00     0.58852E-01
  70.00  21.00     0.69814E-02
  70.00  22.00    -0.37730E-01
  70.00  23.00    -0.62875E-01
  70.00  24.00    -0.56917E-01
  70.00  25.00    -0.12883E-01
  70.00  26.00     0.69288E-01
  70.00  27.00     0.18231    
  70.00  28.00     0.31293    
  70.00  29.00     0.44464    
  70.00  30.00     0.56085    
  70.00  31.00     0.64804    
  70.00  32.00     0.69823    
  70.00  33.00     0.71043    
  70.00  34.00     0.69075    
  70.00  35.00     0.65095    
  70.00  36.00     0.60549    
  70.00  37.00     0.56739    
  70.00  38.00     0.54400    
  70.00  39.00     0.53389    
  70.00  40.00     0.52620    
  70.00  41.00     0.50315    
  70.00  42.00     0.44553    
  70.00  43.00     0.33946    
  70.00  44.00     0.18294    
  70.00  45.00    -0.11429E-01
  70.00  46.00    -0.21769    
  70.00  47.00    -0.40262    
  70.00  48.00    -0.53484    
  70.00  49.00    -0.59365    
  70.00  50.00    -0.57499    
  70.00  51.00    -0.49183    
  70.00  52.00    -0.36905    
  70.00  53.00    -0.23462    
  70.00  54.00    -0.10974    
  70.00  55.00    -0.25557E-02
  70.00  56.00     0.93109E-01
  70.00  57.00     0.19307    
  70.00  58.00     0.31385    
  70.00  59.00     0.46364    
  70.00  60.00     0.63552    
  70.00  61.00     0.80801    
  70.00  62.00     0.95016    
  70.00  63.00      1.0319    
  70.00  64.00      1.0342    
  70.00  65.00     0.95682    
  70.00  66.00     0.81928    
  70.00  67.00     0.65594    
  70.00  68.00     0.50596    
  70.00  69.00     0.40190    
  70.00  70.00     0.36107    
  70.00  71.00     0.38186    
  70.00  72.00     0.44670    
  70.00  73.00     0.52894    
  70.00  74.00     0.60138    
  70.00  75.00     0.64533    
  70.00  76.00     0.65255    
  70.00  77.00     0.62785    
  70.00  78.00     0.58294    
  70.00  79.00     0.53158    
  70.00  80.00     0.48470    
  70.00  81.00     0.44804    
  70.00  82.00     0.42129    
  70.00  83.00     0.40401    
  70.00  84.00     0.39376    
  70.00  85.00     0.39202    
  70.00  86.00     0.40434    
  70.00  87.00     0.43688    
  70.00  88.00     0.49434    
  70.00  89.00     0.57982    
  71.00 -89.00     0.90187    
  71.00 -88.00     0.92380    
  71.00 -87.00     0.93763    
  71.00 -86.00     0.94416    
  71.00 -85.00     0.94594    
  71.00 -84.00     0.94354    
  71.00 -83.00     0.93825    
  71.00 -82.00     0.93569    
  71.00 -81.00     0.93791    
  71.00 -80.00     0.94606    
  71.00 -79.00     0.95864    
  71.00 -78.00     0.97206    
  71.00 -77.00     0.97834    
  71.00 -76.00     0.96880    
  71.00 -75.00     0.93709    
  71.00 -74.00     0.88030    
  71.00 -73.00     0.80261    
  71.00 -72.00     0.71392    
  71.00 -71.00     0.62635    
  71.00 -70.00     0.55221    
  71.00 -69.00     0.49784    
  71.00 -68.00     0.46293    
  71.00 -67.00     0.43869    
  71.00 -66.00     0.41172    
  71.00 -65.00     0.36778    
  71.00 -64.00     0.29620    
  71.00 -63.00     0.19356    
  71.00 -62.00     0.65076E-01
  71.00 -61.00    -0.78762E-01
  71.00 -60.00    -0.22372    
  71.00 -59.00    -0.35713    
  71.00 -58.00    -0.47024    
  71.00 -57.00    -0.55916    
  71.00 -56.00    -0.62412    
  71.00 -55.00    -0.66782    
  71.00 -54.00    -0.69387    
  71.00 -53.00    -0.70606    
  71.00 -52.00    -0.70880    
  71.00 -51.00    -0.70796    
  71.00 -50.00    -0.71111    
  71.00 -49.00    -0.72687    
  71.00 -48.00    -0.76253    
  71.00 -47.00    -0.82151    
  71.00 -46.00    -0.90082    
  71.00 -45.00    -0.99058    
  71.00 -44.00     -1.0758    
  71.00 -43.00     -1.1400    
  71.00 -42.00     -1.1696    
  71.00 -41.00     -1.1575    
  71.00 -40.00     -1.1048    
  71.00 -39.00     -1.0189    
  71.00 -38.00    -0.91095    
  71.00 -37.00    -0.79168    
  71.00 -36.00    -0.66862    
  71.00 -35.00    -0.54530    
  71.00 -34.00    -0.42248    
  71.00 -33.00    -0.30052    
  71.00 -32.00    -0.18154    
  71.00 -31.00    -0.70003E-01
  71.00 -30.00     0.28566E-01
  71.00 -29.00     0.11010    
  71.00 -28.00     0.17440    
  71.00 -27.00     0.22590    
  71.00 -26.00     0.27219    
  71.00 -25.00     0.32047    
  71.00 -24.00     0.37360    
  71.00 -23.00     0.42764    
  71.00 -22.00     0.47228    
  71.00 -21.00     0.49451    
  71.00 -20.00     0.48434    
  71.00 -19.00     0.44020    
  71.00 -18.00     0.37164    
  71.00 -17.00     0.29777    
  71.00 -16.00     0.24164    
  71.00 -15.00     0.22250    
  71.00 -14.00     0.24884    
  71.00 -13.00     0.31505    
  71.00 -12.00     0.40337    
  71.00 -11.00     0.49027    
  71.00 -10.00     0.55522    
  71.00  -9.00     0.58816    
  71.00  -8.00     0.59286    
  71.00  -7.00     0.58472    
  71.00  -6.00     0.58390    
  71.00  -5.00     0.60649    
  71.00  -4.00     0.65729    
  71.00  -3.00     0.72708    
  71.00  -2.00     0.79560    
  71.00  -1.00     0.83900    
  71.00   0.00     0.83885    
  71.00   1.00     0.78930    
  71.00   2.00     0.69958    
  71.00   3.00     0.59094    
  71.00   4.00     0.48938    
  71.00   5.00     0.41694    
  71.00   6.00     0.38485    
  71.00   7.00     0.39080    
  71.00   8.00     0.42113    
  71.00   9.00     0.45661    
  71.00  10.00     0.47945    
  71.00  11.00     0.47879    
  71.00  12.00     0.45287    
  71.00  13.00     0.40767    
  71.00  14.00     0.35287    
  71.00  15.00     0.29739    
  71.00  16.00     0.24610    
  71.00  17.00     0.19918    
  71.00  18.00     0.15373    
  71.00  19.00     0.10685    
  71.00  20.00     0.58564E-01
  71.00  21.00     0.13346E-01
  71.00  22.00    -0.20408E-01
  71.00  23.00    -0.32607E-01
  71.00  24.00    -0.14540E-01
  71.00  25.00     0.38300E-01
  71.00  26.00     0.12453    
  71.00  27.00     0.23666    
  71.00  28.00     0.36233    
  71.00  29.00     0.48645    
  71.00  30.00     0.59389    
  71.00  31.00     0.67213    
  71.00  32.00     0.71356    
  71.00  33.00     0.71707    
  71.00  34.00     0.68843    
  71.00  35.00     0.63919    
  71.00  36.00     0.58389    
  71.00  37.00     0.53605    
  71.00  38.00     0.50384    
  71.00  39.00     0.48680    
  71.00  40.00     0.47503    
  71.00  41.00     0.45151    
  71.00  42.00     0.39765    
  71.00  43.00     0.29986    
  71.00  44.00     0.15618    
  71.00  45.00    -0.21167E-01
  71.00  46.00    -0.20714    
  71.00  47.00    -0.36998    
  71.00  48.00    -0.48032    
  71.00  49.00    -0.51968    
  71.00  50.00    -0.48613    
  71.00  51.00    -0.39420    
  71.00  52.00    -0.26939    
  71.00  53.00    -0.13913    
  71.00  54.00    -0.23063E-01
  71.00  55.00     0.72931E-01
  71.00  56.00     0.15746    
  71.00  57.00     0.24837    
  71.00  58.00     0.36345    
  71.00  59.00     0.51114    
  71.00  60.00     0.68395    
  71.00  61.00     0.85921    
  71.00  62.00      1.0045    
  71.00  63.00      1.0886    
  71.00  64.00      1.0917    
  71.00  65.00      1.0133    
  71.00  66.00     0.87288    
  71.00  67.00     0.70515    
  71.00  68.00     0.54975    
  71.00  69.00     0.43951    
  71.00  70.00     0.39207    
  71.00  71.00     0.40590    
  71.00  72.00     0.46363    
  71.00  73.00     0.53900    
  71.00  74.00     0.60510    
  71.00  75.00     0.64362    
  71.00  76.00     0.64672    
  71.00  77.00     0.61956    
  71.00  78.00     0.57383    
  71.00  79.00     0.52316    
  71.00  80.00     0.47810    
  71.00  81.00     0.44385    
  71.00  82.00     0.41958    
  71.00  83.00     0.40434    
  71.00  84.00     0.39530    
  71.00  85.00     0.39414    
  71.00  86.00     0.40615    
  71.00  87.00     0.43788    
  71.00  88.00     0.49463    
  71.00  89.00     0.57966    
  72.00 -89.00     0.90224    
  72.00 -88.00     0.92466    
  72.00 -87.00     0.93903    
  72.00 -86.00     0.94582    
  72.00 -85.00     0.94741    
  72.00 -84.00     0.94425    
  72.00 -83.00     0.93825    
  72.00 -82.00     0.93477    
  72.00 -81.00     0.93701    
  72.00 -80.00     0.94642    
  72.00 -79.00     0.96158    
  72.00 -78.00     0.97858    
  72.00 -77.00     0.98878    
  72.00 -76.00     0.98269    
  72.00 -75.00     0.95328    
  72.00 -74.00     0.89746    
  72.00 -73.00     0.81929    
  72.00 -72.00     0.72910    
  72.00 -71.00     0.63961    
  72.00 -70.00     0.56345    
  72.00 -69.00     0.50702    
  72.00 -68.00     0.46969    
  72.00 -67.00     0.44218    
  72.00 -66.00     0.41065    
  72.00 -65.00     0.36062    
  72.00 -64.00     0.28194    
  72.00 -63.00     0.17201    
  72.00 -62.00     0.37221E-01
  72.00 -61.00    -0.11071    
  72.00 -60.00    -0.25679    
  72.00 -59.00    -0.38822    
  72.00 -58.00    -0.49686    
  72.00 -57.00    -0.57996    
  72.00 -56.00    -0.63922    
  72.00 -55.00    -0.67864    
  72.00 -54.00    -0.70272    
  72.00 -53.00    -0.71552    
  72.00 -52.00    -0.72091    
  72.00 -51.00    -0.72369    
  72.00 -50.00    -0.73005    
  72.00 -49.00    -0.74711    
  72.00 -48.00    -0.78085    
  72.00 -47.00    -0.83384    
  72.00 -46.00    -0.90288    
  72.00 -45.00    -0.97858    
  72.00 -44.00     -1.0472    
  72.00 -43.00     -1.0943    
  72.00 -42.00     -1.1087    
  72.00 -41.00     -1.0859    
  72.00 -40.00     -1.0291    
  72.00 -39.00    -0.94709    
  72.00 -38.00    -0.85116    
  72.00 -37.00    -0.75062    
  72.00 -36.00    -0.65035    
  72.00 -35.00    -0.55037    
  72.00 -34.00    -0.44777    
  72.00 -33.00    -0.33991    
  72.00 -32.00    -0.22720    
  72.00 -31.00    -0.11407    
  72.00 -30.00    -0.76574E-02
  72.00 -29.00     0.85274E-01
  72.00 -28.00     0.16143    
  72.00 -27.00     0.22266    
  72.00 -26.00     0.27505    
  72.00 -25.00     0.32569    
  72.00 -24.00     0.37861    
  72.00 -23.00     0.43167    
  72.00 -22.00     0.47633    
  72.00 -21.00     0.50069    
  72.00 -20.00     0.49482    
  72.00 -19.00     0.45629    
  72.00 -18.00     0.39330    
  72.00 -17.00     0.32379    
  72.00 -16.00     0.27045    
  72.00 -15.00     0.25317    
  72.00 -14.00     0.28191    
  72.00 -13.00     0.35274    
  72.00 -12.00     0.44890    
  72.00 -11.00     0.54655    
  72.00 -10.00     0.62318    
  72.00  -9.00     0.66547    
  72.00  -8.00     0.67352    
  72.00  -7.00     0.65992    
  72.00  -6.00     0.64395    
  72.00  -5.00     0.64335    
  72.00  -4.00     0.66694    
  72.00  -3.00     0.71091    
  72.00  -2.00     0.76026    
  72.00  -1.00     0.79472    
  72.00   0.00     0.79671    
  72.00   1.00     0.75822    
  72.00   2.00     0.68408    
  72.00   3.00     0.59029    
  72.00   4.00     0.49848    
  72.00   5.00     0.42846    
  72.00   6.00     0.39199    
  72.00   7.00     0.38962    
  72.00   8.00     0.41172    
  72.00   9.00     0.44274    
  72.00  10.00     0.46685    
  72.00  11.00     0.47285    
  72.00  12.00     0.45657    
  72.00  13.00     0.42051    
  72.00  14.00     0.37122    
  72.00  15.00     0.31602    
  72.00  16.00     0.26039    
  72.00  17.00     0.20701    
  72.00  18.00     0.15651    
  72.00  19.00     0.10920    
  72.00  20.00     0.66824E-01
  72.00  21.00     0.33442E-01
  72.00  22.00     0.15045E-01
  72.00  23.00     0.18145E-01
  72.00  24.00     0.47884E-01
  72.00  25.00     0.10632    
  72.00  26.00     0.19142    
  72.00  27.00     0.29681    
  72.00  28.00     0.41244    
  72.00  29.00     0.52582    
  72.00  30.00     0.62373    
  72.00  31.00     0.69436    
  72.00  32.00     0.72955    
  72.00  33.00     0.72679    
  72.00  34.00     0.69030    
  72.00  35.00     0.63065    
  72.00  36.00     0.56247    
  72.00  37.00     0.50042    
  72.00  38.00     0.45469    
  72.00  39.00     0.42712    
  72.00  40.00     0.40987    
  72.00  41.00     0.38740    
  72.00  42.00     0.34164    
  72.00  43.00     0.25869    
  72.00  44.00     0.13549    
  72.00  45.00    -0.17424E-01
  72.00  46.00    -0.17708    
  72.00  47.00    -0.31404    
  72.00  48.00    -0.40129    
  72.00  49.00    -0.42250    
  72.00  50.00    -0.37740    
  72.00  51.00    -0.28140    
  72.00  52.00    -0.15987    
  72.00  53.00    -0.39072E-01
  72.00  54.00     0.63338E-01
  72.00  55.00     0.14401    
  72.00  56.00     0.21409    
  72.00  57.00     0.29341    
  72.00  58.00     0.40101    
  72.00  59.00     0.54551    
  72.00  60.00     0.71880    
  72.00  61.00     0.89705    
  72.00  62.00      1.0464    
  72.00  63.00      1.1344    
  72.00  64.00      1.1402    
  72.00  65.00      1.0629    
  72.00  66.00     0.92176    
  72.00  67.00     0.75159    
  72.00  68.00     0.59225    
  72.00  69.00     0.47675    
  72.00  70.00     0.42311    
  72.00  71.00     0.43001    
  72.00  72.00     0.48041    
  72.00  73.00     0.54867    
  72.00  74.00     0.60833    
  72.00  75.00     0.64155    
  72.00  76.00     0.64087    
  72.00  77.00     0.61172    
  72.00  78.00     0.56566    
  72.00  79.00     0.51607    
  72.00  80.00     0.47304    
  72.00  81.00     0.44120    
  72.00  82.00     0.41924    
  72.00  83.00     0.40575    
  72.00  84.00     0.39758    
  72.00  85.00     0.39674    
  72.00  86.00     0.40822    
  72.00  87.00     0.43903    
  72.00  88.00     0.49499    
  72.00  89.00     0.57952    
  73.00 -89.00     0.90259    
  73.00 -88.00     0.92550    
  73.00 -87.00     0.94042    
  73.00 -86.00     0.94751    
  73.00 -85.00     0.94894    
  73.00 -84.00     0.94507    
  73.00 -83.00     0.93844    
  73.00 -82.00     0.93407    
  73.00 -81.00     0.93633    
  73.00 -80.00     0.94695    
  73.00 -79.00     0.96461    
  73.00 -78.00     0.98510    
  73.00 -77.00     0.99915    
  73.00 -76.00     0.99651    
  73.00 -75.00     0.96953    
  73.00 -74.00     0.91494    
  73.00 -73.00     0.83666    
  73.00 -72.00     0.74539    
  73.00 -71.00     0.65440    
  73.00 -70.00     0.57655    
  73.00 -69.00     0.51822    
  73.00 -68.00     0.47850    
  73.00 -67.00     0.44759    
  73.00 -66.00     0.41136    
  73.00 -65.00     0.35521    
  73.00 -64.00     0.26960    
  73.00 -63.00     0.15290    
  73.00 -62.00     0.12700E-01
  73.00 -61.00    -0.13805    
  73.00 -60.00    -0.28370    
  73.00 -59.00    -0.41154    
  73.00 -58.00    -0.51423    
  73.00 -57.00    -0.59040    
  73.00 -56.00    -0.64341    
  73.00 -55.00    -0.67864    
  73.00 -54.00    -0.70144    
  73.00 -53.00    -0.71594    
  73.00 -52.00    -0.72521    
  73.00 -51.00    -0.73263    
  73.00 -50.00    -0.74274    
  73.00 -49.00    -0.76096    
  73.00 -48.00    -0.79202    
  73.00 -47.00    -0.83785    
  73.00 -46.00    -0.89535    
  73.00 -45.00    -0.95600    
  73.00 -44.00     -1.0077    
  73.00 -43.00     -1.0379    
  73.00 -42.00     -1.0379    
  73.00 -41.00     -1.0055    
  73.00 -40.00    -0.94559    
  73.00 -39.00    -0.86813    
  73.00 -38.00    -0.78420    
  73.00 -37.00    -0.70193    
  73.00 -36.00    -0.62388    
  73.00 -35.00    -0.54705    
  73.00 -34.00    -0.46540    
  73.00 -33.00    -0.37362    
  73.00 -32.00    -0.27055    
  73.00 -31.00    -0.16038    
  73.00 -30.00    -0.51312E-01
  73.00 -29.00     0.47863E-01
  73.00 -28.00     0.13154    
  73.00 -27.00     0.19966    
  73.00 -26.00     0.25733    
